-1.008130869198439861e+00 -7.450481746323950327e-01 9.995459318161010742e-01
-1.008160687021808277e+00 -7.436770357574952195e-01 9.995754957199096680e-01
-1.007807201535102504e+00 -7.420235976943164724e-01 9.992250204086303711e-01
-1.007854032350433027e+00 -7.406653264211280341e-01 9.992714524269104004e-01
-1.008228919339394958e+00 -7.395475587099432646e-01 9.996431469917297363e-01
-1.008345846086272868e+00 -7.382398945449046845e-01 9.997590780258178711e-01
-1.008338091047533913e+00 -7.368407962832248526e-01 9.997513890266418457e-01
-1.008362558495338179e+00 -7.354652214363982532e-01 9.997756481170654297e-01
-1.008405241266692176e+00 -7.341028394298739768e-01 9.998179674148559570e-01
-1.008392256085548055e+00 -7.326998910078762473e-01 9.998050928115844727e-01
-1.008404279401422299e+00 -7.313151151405405948e-01 9.998170137405395508e-01
-1.008362979311393959e+00 -7.298917085216443112e-01 9.997760653495788574e-01
-1.008264508354383082e+00 -7.284271125909894673e-01 9.996784329414367676e-01
-1.007331378809375622e+00 -7.263609378169183506e-01 9.987532496452331543e-01
-1.006983604397710286e+00 -7.247186177629034720e-01 9.984084367752075195e-01
-1.006207319008283640e+00 -7.227694548784027173e-01 9.976387619972229004e-01
-1.007225453396522807e+00 -7.221089086584695504e-01 9.986482262611389160e-01
-1.007193952308931939e+00 -7.206944851377652395e-01 9.986169934272766113e-01
-1.006171154914558663e+00 -7.696915743522049214e-01 9.989839196205139160e-01
-1.006203332856143495e+00 -7.683237941161294993e-01 9.990158677101135254e-01
-1.006013747148074566e+00 -7.667868958605752461e-01 9.988276362419128418e-01
-1.006090890161015938e+00 -7.654534546887785673e-01 9.989042282104492188e-01
-1.005805130829031002e+00 -7.638441990628357381e-01 9.986205101013183594e-01
-1.006149062596455757e+00 -7.627130727601262317e-01 9.989619851112365723e-01
-1.005605459497480147e+00 -7.609094253928589957e-01 9.984222650527954102e-01
-1.005573461656314560e+00 -7.594936898522015589e-01 9.983904957771301270e-01
-1.005641059347032185e+00 -7.581531279739835982e-01 9.984576106071472168e-01
-1.005932221691596462e+00 -7.569806151062559163e-01 9.987466931343078613e-01
-1.006236351266351914e+00 -7.558170365218555009e-01 9.990486502647399902e-01
-1.006056250847033651e+00 -7.542895653172467796e-01 9.988698363304138184e-01
-1.006010385273580665e+00 -7.528630492346550795e-01 9.988242983818054199e-01
-1.006406606196080578e+00 -7.517668904253036466e-01 9.992176890373229980e-01
-1.006232088889761345e+00 -7.502440940498367183e-01 9.990444183349609375e-01
-1.006124088671643602e+00 -7.487712835975798287e-01 9.989371895790100098e-01
-1.005998618712851789e+00 -7.472857950044368147e-01 9.988126158714294434e-01
-1.005824101406532556e+00 -7.457642877036102513e-01 9.986393451690673828e-01
-1.006328742781462005e+00 -7.447458830819237985e-01 9.991403818130493164e-01
-1.006836145696154539e+00 -7.437281216932802863e-01 9.996441602706909180e-01
-1.006375388790065495e+00 -7.419951369998086799e-01 9.991866946220397949e-01
-1.006179019299535460e+00 -7.404579930582751990e-01 9.989917278289794922e-01
-1.006593670498279192e+00 -7.393702037718447029e-01 9.994034171104431152e-01
-1.006910707269752070e+00 -7.382097015374479154e-01 9.997181892395019531e-01
-1.006987790249220360e+00 -7.368727334335095636e-01 9.997947216033935547e-01
-1.006995354466831749e+00 -7.354847771896660946e-01 9.998022317886352539e-01
-1.007006340592410121e+00 -7.340992945535342873e-01 9.998131394386291504e-01
-1.007019487923020318e+00 -7.327153540218515060e-01 9.998261928558349609e-01
-1.007027052140631929e+00 -7.313273225120657806e-01 9.998337030410766602e-01
-1.007009642433430940e+00 -7.299211679603128111e-01 9.998164176940917969e-01
-1.006779113896703715e+00 -7.283608793926562575e-01 9.995875358581542969e-01
-1.005656367882674207e+00 -7.261569829810426979e-01 9.984728097915649414e-01
-1.005284520550255190e+00 -7.244973582235700871e-01 9.981036186218261719e-01
-1.004315760394742574e+00 -7.224094001898738737e-01 9.971417784690856934e-01
-1.005626891447379156e+00 -7.219609056433858862e-01 9.984435439109802246e-01
-1.005526275346453335e+00 -7.204972127046566088e-01 9.983436465263366699e-01
-1.004797224173494818e+00 -7.697060862904495648e-01 9.990027546882629395e-01
-1.004834453351302725e+00 -7.683421762689948142e-01 9.990397691726684570e-01
-1.004553046329353716e+00 -7.667349608651488069e-01 9.987599849700927734e-01
-1.004559341117872151e+00 -7.653477179197958336e-01 9.987662434577941895e-01
-1.004534401765266427e+00 -7.639367043284153169e-01 9.987414479255676270e-01
-1.004651065179137825e+00 -7.626332508857720516e-01 9.988574385643005371e-01
-1.004282250522335440e+00 -7.609616191834983612e-01 9.984907507896423340e-01
-1.004136391279812690e+00 -7.594596377621726235e-01 9.983457326889038086e-01
-1.004268761689796285e+00 -7.581681087874792002e-01 9.984773397445678711e-01
-1.004456766040207949e+00 -7.569181364489256936e-01 9.986642599105834961e-01
-1.004927556271005828e+00 -7.558803472416837366e-01 9.991323351860046387e-01
-1.004861970569682406e+00 -7.544385485175382211e-01 9.990671277046203613e-01
-1.004839788933951539e+00 -7.530294586771166809e-01 9.990450739860534668e-01
-1.005034447775082551e+00 -7.517826306272948900e-01 9.992386102676391602e-01
-1.005183184635213500e+00 -7.505009763116001764e-01 9.993864893913269043e-01
-1.005045118940379956e+00 -7.490051715158795309e-01 9.992492198944091797e-01
-1.004565456055289685e+00 -7.472556490174249166e-01 9.987723231315612793e-01
-1.004481285740245644e+00 -7.458010987805610004e-01 9.986886382102966309e-01
-1.004526428366476543e+00 -7.444426141043347656e-01 9.987335205078125000e-01
-1.005334499361118628e+00 -7.436483442640465791e-01 9.995369315147399902e-01
-1.005404221637754114e+00 -7.423066997193117356e-01 9.996062517166137695e-01
-1.005130248461293396e+00 -7.407115821276925027e-01 9.993338584899902344e-01
-1.005078870996911178e+00 -7.392809530521253780e-01 9.992827773094177246e-01
-1.005305543333934848e+00 -7.380545992659054422e-01 9.995081424713134766e-01
-1.005511173092197508e+00 -7.368121978171513486e-01 9.997125864028930664e-01
-1.005587310058084771e+00 -7.354745169962475515e-01 9.997882843017578125e-01
-1.005617764844439765e+00 -7.341032770689283060e-01 9.998185634613037109e-01
-1.005635030550089848e+00 -7.327223429547216060e-01 9.998357295989990234e-01
-1.005643483551814432e+00 -7.313349521192690217e-01 9.998441338539123535e-01
-1.005640545983839118e+00 -7.299392700673823509e-01 9.998412132263183594e-01
-1.005112083500140807e+00 -7.281628747033441762e-01 9.993157982826232910e-01
-1.004145323884471974e+00 -7.260710228451147108e-01 9.983546137809753418e-01
-1.004057256795583442e+00 -7.246159921025008277e-01 9.982670545578002930e-01
-1.003461769801757386e+00 -7.227957097657409236e-01 9.976750016212463379e-01
-1.004048803793858857e+00 -7.218272115977277803e-01 9.982586503028869629e-01
-1.004189447354466580e+00 -7.205367876367236857e-01 9.983984827995300293e-01
-1.003529625031312600e+00 -7.698022049193916638e-01 9.991275072097778320e-01
-1.003279499616630988e+00 -7.682181311177390670e-01 9.988784790039062500e-01
-1.003062121593484068e+00 -7.666597809554700493e-01 9.986620545387268066e-01
-1.003181975849154695e+00 -7.653593192758744168e-01 9.987813830375671387e-01
-1.003100436640251836e+00 -7.639051549721900258e-01 9.987002015113830566e-01
-1.002945320568102483e+00 -7.623952870425581008e-01 9.985457658767700195e-01
-1.003152820493254715e+00 -7.611609912871675210e-01 9.987523555755615234e-01
-1.002764401706645492e+00 -7.594747821004811383e-01 9.983656406402587891e-01
-1.002872821315546448e+00 -7.581652574543967793e-01 9.984735846519470215e-01
-1.003088523055397419e+00 -7.569363876257597656e-01 9.986883401870727539e-01
-1.003239807622869906e+00 -7.556583989774421362e-01 9.988389611244201660e-01
-1.003630022427296486e+00 -7.545596254990438734e-01 9.992274641990661621e-01
-1.003495859896348374e+00 -7.530662538535140005e-01 9.990938901901245117e-01
-1.003587875875851854e+00 -7.517426747299326140e-01 9.991855025291442871e-01
-1.003856620008571898e+00 -7.505509741311489069e-01 9.994530677795410156e-01
-1.003820220714142453e+00 -7.491308052935792272e-01 9.994168281555175781e-01
-1.003512263525745851e+00 -7.475084561185638687e-01 9.991102218627929688e-01
-1.002961664330239477e+00 -7.457065561838941425e-01 9.985620379447937012e-01
-1.003024644688364164e+00 -7.443615320820522463e-01 9.986247420310974121e-01
-1.003491250117284128e+00 -7.433153100819758219e-01 9.990893006324768066e-01
-1.004049632056665198e+00 -7.423356472997286737e-01 9.996452331542968750e-01
-1.004061425906998428e+00 -7.409510780066664859e-01 9.996569752693176270e-01
-1.004083636660671575e+00 -7.395741487217963872e-01 9.996790885925292969e-01
-1.004116623521248419e+00 -7.382050801587555222e-01 9.997119307518005371e-01
-1.004124166796080742e+00 -7.368172497735238080e-01 9.997194409370422363e-01
-1.004168827772469630e+00 -7.354565835812554297e-01 9.997639060020446777e-01
-1.004200018615229117e+00 -7.340859465623782443e-01 9.997949600219726562e-01
-1.004241207290504478e+00 -7.327225176780433058e-01 9.998359680175781250e-01
-1.004256413574690532e+00 -7.313400530566563917e-01 9.998511075973510742e-01
-1.004197923261108905e+00 -7.299039796615327536e-01 9.997928738594055176e-01
-1.003164554476327464e+00 -7.277608283315606386e-01 9.987640380859375000e-01
-1.002657418911998333e+00 -7.260015784992968069e-01 9.982591271400451660e-01
-1.002435431109786945e+00 -7.244498094879956440e-01 9.980381131172180176e-01
-1.002857674898620877e+00 -7.233633421572871480e-01 9.984585046768188477e-01
-1.002567558153875549e+00 -7.217628643346176709e-01 9.981696605682373047e-01
-1.003005367430459094e+00 -7.206862260215076699e-01 9.986055493354797363e-01
-1.001925392138313331e+00 -7.696400018628107853e-01 9.989169836044311523e-01
-1.001695342712531467e+00 -7.680713489394978000e-01 9.986876249313354492e-01
-1.001807019512781061e+00 -7.667648864043636880e-01 9.987989664077758789e-01
-1.001659591788254700e+00 -7.652601596536448003e-01 9.986519813537597656e-01
-1.001629998631871743e+00 -7.638457035841588194e-01 9.986224770545959473e-01
-1.001433966389891905e+00 -7.623046341499051248e-01 9.984270334243774414e-01
-1.001610987270801445e+00 -7.610475640502428751e-01 9.986035227775573730e-01
-1.001780056859187473e+00 -7.597839714505569830e-01 9.987720847129821777e-01
-1.001471630407106517e+00 -7.581584233068505707e-01 9.984645843505859375e-01
-1.001547735635542224e+00 -7.568243055224795901e-01 9.985404610633850098e-01
-1.001821786198895392e+00 -7.556392795007988994e-01 9.988136887550354004e-01
-1.002074972092394711e+00 -7.544377833470230499e-01 9.990661144256591797e-01
-1.002131348549908152e+00 -7.530876840111960790e-01 9.991223216056823730e-01
-1.002089200721120177e+00 -7.516635252811733059e-01 9.990803003311157227e-01
-1.002306157417108157e+00 -7.504334770171692259e-01 9.992966055870056152e-01
-1.002521619509238571e+00 -7.492017088516197409e-01 9.995114207267761230e-01
-1.002494357934873515e+00 -7.477882875808407048e-01 9.994842410087585449e-01
-1.002279254547669085e+00 -7.462350866889889689e-01 9.992697834968566895e-01
-1.001897951211485394e+00 -7.445589723598731169e-01 9.988896250724792480e-01
-1.001656722148847711e+00 -7.429878190787012615e-01 9.986491203308105469e-01
-1.002267477069270107e+00 -7.420481190391957638e-01 9.992580413818359375e-01
-1.002712091824867535e+00 -7.409839473912739338e-01 9.997013211250305176e-01
-1.002705635136202034e+00 -7.395858342162260346e-01 9.996948838233947754e-01
-1.002718608297687108e+00 -7.382020432527576226e-01 9.997078180313110352e-01
-1.002767990009146404e+00 -7.368449696384891112e-01 9.997570514678955078e-01
-1.002777675042144656e+00 -7.354586443893351699e-01 9.997667074203491211e-01
-1.002813665103038598e+00 -7.340915483422731924e-01 9.998025894165039062e-01
-1.002853182429036982e+00 -7.327269294419176404e-01 9.998419880867004395e-01
-1.002863584871886760e+00 -7.313409686095206919e-01 9.998523592948913574e-01
-1.002483417434634871e+00 -7.296706974596098849e-01 9.994733333587646484e-01
-1.001344887999971123e+00 -7.274505529421231298e-01 9.983382225036621094e-01
-1.001140964249622733e+00 -7.259112401617910937e-01 9.981349110603332520e-01
-1.001343034691187794e+00 -7.246663098272262404e-01 9.983363747596740723e-01
-1.001533387438507949e+00 -7.234123541591437334e-01 9.985261559486389160e-01
-1.001708256089862248e+00 -7.221467067493922976e-01 9.987004995346069336e-01
-1.001816824114087678e+00 -7.208328683513086643e-01 9.988087415695190430e-01
-1.000271955633906140e+00 -7.694394983109897890e-01 9.986567497253417969e-01
-1.000503834504507195e+00 -7.682256490056939002e-01 9.988882541656494141e-01
-1.000109568783227765e+00 -7.665312475615030374e-01 9.984946250915527344e-01
-1.000113926959735000e+00 -7.651429128778440836e-01 9.984989762306213379e-01
-1.000201806902454971e+00 -7.638183486510154996e-01 9.985867142677307129e-01
-1.000246403585343336e+00 -7.624605462032328917e-01 9.986312389373779297e-01
-1.000183836886993749e+00 -7.610210810389785863e-01 9.985687732696533203e-01
-1.000573445926525862e+00 -7.599252128093320069e-01 9.989577531814575195e-01
-1.000233687262110260e+00 -7.582753279632220567e-01 9.986185431480407715e-01
-1.000033151441731993e+00 -7.567317395290815707e-01 9.984183311462402344e-01
-1.000378223499423624e+00 -7.556008150819858438e-01 9.987628459930419922e-01
-1.000540789453246093e+00 -7.543313346253647245e-01 9.989251494407653809e-01
-1.000780966769525104e+00 -7.531198067842415078e-01 9.991649389266967773e-01
-1.000852966233465757e+00 -7.517812853108853943e-01 9.992368221282958984e-01
-1.000794817412671289e+00 -7.503449849050406462e-01 9.991787672042846680e-01
-1.000917741870592792e+00 -7.490443538853824856e-01 9.993014931678771973e-01
-1.001056367704149963e+00 -7.477551091572655073e-01 9.994398951530456543e-01
-1.001042457359955673e+00 -7.463517515410903469e-01 9.994260072708129883e-01
-1.000898159926834730e+00 -7.448514007821543936e-01 9.992819428443908691e-01
-1.000739892448471169e+00 -7.433410747770202720e-01 9.991239309310913086e-01
-1.000721086618337585e+00 -7.419345860976521712e-01 9.991051554679870605e-01
-1.000873563095040719e+00 -7.406549001109566932e-01 9.992573857307434082e-01
-1.001285022718156670e+00 -7.395660791162090852e-01 9.996681809425354004e-01
-1.001373320568213154e+00 -7.382378699409062328e-01 9.997563362121582031e-01
-1.001379171270921242e+00 -7.368487476232544742e-01 9.997621774673461914e-01
-1.001361380358604336e+00 -7.354422456186577861e-01 9.997444152832031250e-01
-1.001412782960969805e+00 -7.340865154931487391e-01 9.997957348823547363e-01
-1.001449797610756809e+00 -7.327201152323691291e-01 9.998326897621154785e-01
-1.001373977279741423e+00 -7.312712122008054871e-01 9.997569918632507324e-01
-1.000363298237412657e+00 -7.291411237984641858e-01 9.987479448318481445e-01
-9.995437819509191968e-01 -7.271529161498758720e-01 9.979297518730163574e-01
-9.996656914910240221e-01 -7.258505522191288639e-01 9.980514645576477051e-01
-9.999176896148157523e-01 -7.246421244376118898e-01 9.983030557632446289e-01
-9.999453909011080111e-01 -7.232707591335157948e-01 9.983307123184204102e-01
-1.000069628782086495e+00 -7.219690083128196267e-01 9.984547495841979980e-01
-1.000334999940639902e+00 -7.207686021029300338e-01 9.987196922302246094e-01
-9.987834326250667472e-01 -7.693654690564006859e-01 9.985606670379638672e-01
-9.990988115370718070e-01 -7.682162058049701869e-01 9.988759756088256836e-01
-9.987898117448369417e-01 -7.665868431733471322e-01 9.985670447349548340e-01
-9.989572189253493883e-01 -7.653233276672530838e-01 9.987344145774841309e-01
-9.989467261675963883e-01 -7.639233004111750658e-01 9.987239241600036621e-01
-9.989954936439706668e-01 -7.625685378268602932e-01 9.987726807594299316e-01
-9.989387969813398049e-01 -7.611332817899613135e-01 9.987159967422485352e-01
-9.991928886491973083e-01 -7.599345533293664356e-01 9.989700317382812500e-01
-9.992148280517715309e-01 -7.585588771975104727e-01 9.989919662475585938e-01
-9.989435067987404437e-01 -7.569609182916530177e-01 9.987207055091857910e-01
-9.988862735746335542e-01 -7.555256448754659182e-01 9.986634850502014160e-01
-9.990797934136446123e-01 -7.542798431507019563e-01 9.988569617271423340e-01
-9.992342038828493367e-01 -7.530040300204121628e-01 9.990113377571105957e-01
-9.993507569590250883e-01 -7.516993106976661565e-01 9.991278648376464844e-01
-9.993433047163029492e-01 -7.503011640766268364e-01 9.991204142570495605e-01
-9.993717424745309774e-01 -7.489299342179965846e-01 9.991488456726074219e-01
-9.995696740412335357e-01 -7.476854077109644781e-01 9.993467330932617188e-01
-9.996703687448963427e-01 -7.463677311984366902e-01 9.994474053382873535e-01
-9.996607702562702036e-01 -7.449675813236714683e-01 9.994378089904785156e-01
-9.995073732920756182e-01 -7.434604970210038077e-01 9.992844462394714355e-01
-9.995015307337813404e-01 -7.420633895518009560e-01 9.992786049842834473e-01
-9.994267102168502559e-01 -7.406151829378895268e-01 9.992038011550903320e-01
-9.994223581071004503e-01 -7.392193065569832022e-01 9.991994500160217285e-01
-9.996851539944573428e-01 -7.380206651423641961e-01 9.994621872901916504e-01
-9.998209636658274002e-01 -7.367277203205935265e-01 9.995979666709899902e-01
-9.999124772064563738e-01 -7.354018187027095976e-01 9.996894598007202148e-01
-1.000030997674711042e+00 -7.340954870937618226e-01 9.998079538345336914e-01
-1.000056573771733515e+00 -7.327207267639953558e-01 9.998335242271423340e-01
-9.995310416149615351e-01 -7.309428775045340165e-01 9.993081092834472656e-01
-9.983784479465694917e-01 -7.287088054481368760e-01 9.981557726860046387e-01
-9.981759257983500166e-01 -7.271700716340342430e-01 9.979532957077026367e-01
-9.983600856205019358e-01 -7.259130608000707863e-01 9.981374144554138184e-01
-9.984019374156299920e-01 -7.245522620865763042e-01 9.981792569160461426e-01
-9.985446031503045772e-01 -7.232643681412030956e-01 9.983218908309936523e-01
-9.986783261937123291e-01 -7.219696117030967031e-01 9.984555840492248535e-01
-9.989736138593382497e-01 -7.207910565752551069e-01 9.987508058547973633e-01
-9.974751513585813356e-01 -7.694302676160936771e-01 9.986447691917419434e-01
-9.972798770981010641e-01 -7.678880316594268729e-01 9.984492659568786621e-01
-9.977656218210457784e-01 -7.668697630647313135e-01 9.989355802536010742e-01
-9.974052574616899536e-01 -7.652010110074968230e-01 9.985747933387756348e-01
-9.975426043272167531e-01 -7.639144100579035035e-01 9.987123012542724609e-01
-9.973026194052667659e-01 -7.623389930524919755e-01 9.984720349311828613e-01
-9.972932724360913381e-01 -7.609402238176226074e-01 9.984626770019531250e-01
-9.976252386789077331e-01 -7.598014282477090209e-01 9.987950325012207031e-01
-9.976780460780071413e-01 -7.584494855775144595e-01 9.988479018211364746e-01
-9.975633819848105377e-01 -7.569703149371516115e-01 9.987331032752990723e-01
-9.976183326379883809e-01 -7.556199345586290805e-01 9.987881183624267578e-01
-9.975009894771936780e-01 -7.541391417959857346e-01 9.986706376075744629e-01
-9.976946562971150678e-01 -7.528933749294880462e-01 9.988645315170288086e-01
-9.978159882918890000e-01 -7.515925822625119102e-01 9.989860057830810547e-01
-9.978701054573696494e-01 -7.502409160326587445e-01 9.990401864051818848e-01
-9.978192627078421584e-01 -7.488103319338917929e-01 9.989892840385437012e-01
-9.979383323788667548e-01 -7.475071628735588947e-01 9.991084933280944824e-01
-9.981584922005910521e-01 -7.462792421766976103e-01 9.993289113044738770e-01
-9.982249926118581529e-01 -7.449360370848656654e-01 9.993954896926879883e-01
-9.982737516421428259e-01 -7.435794314652532933e-01 9.994443058967590332e-01
-9.982178484315967770e-01 -7.421448765480511689e-01 9.993883371353149414e-01
-9.981940940322274747e-01 -7.407343344570913590e-01 9.993645548820495605e-01
-9.982427339928408028e-01 -7.393774796457348586e-01 9.994132518768310547e-01
-9.981822465999603544e-01 -7.379398130218127738e-01 9.993526935577392578e-01
-9.981865331081173354e-01 -7.365501111065615447e-01 9.993569850921630859e-01
-9.984207431510225828e-01 -7.353297342668974057e-01 9.995914697647094727e-01
-9.986332825138013458e-01 -7.340927737316251811e-01 9.998042583465576172e-01
-9.984653942776567925e-01 -7.325760995344139381e-01 9.996361732482910156e-01
-9.972605878113951494e-01 -7.303005517735331464e-01 9.984299540519714355e-01
-9.967996691148593991e-01 -7.285720823221449871e-01 9.979684948921203613e-01
-9.968893285771407431e-01 -7.272465546912569856e-01 9.980582594871520996e-01
-9.969150476260820737e-01 -7.258742205167670880e-01 9.980840086936950684e-01
-9.971336000072476002e-01 -7.246419513757899056e-01 9.983028173446655273e-01
-9.974044835088283767e-01 -7.234470296106774168e-01 9.985740184783935547e-01
-9.973244686898998790e-01 -7.219973245565326492e-01 9.984939098358154297e-01
-9.977328181266784668e-01 -7.209007049468192374e-01 9.989027380943298340e-01
-9.959211593761549963e-01 -7.693054465776489881e-01 9.984827637672424316e-01
-9.962083706801455607e-01 -7.681352509871143264e-01 9.987707138061523438e-01
-9.960258538713583354e-01 -7.666027210970588479e-01 9.985877275466918945e-01
-9.961869680576167507e-01 -7.653347006501802774e-01 9.987492561340332031e-01
-9.960410140623162656e-01 -7.638307495540402892e-01 9.986029267311096191e-01
-9.961264461972436646e-01 -7.625043253612310279e-01 9.986885786056518555e-01
-9.958886987319863771e-01 -7.609307299079242082e-01 9.984502196311950684e-01
-9.960383387345002060e-01 -7.596532495124034279e-01 9.986002445220947266e-01
-9.959678289836136900e-01 -7.582077558950987006e-01 9.985295534133911133e-01
-9.958231234746274252e-01 -7.567060794586811800e-01 9.983844757080078125e-01
-9.960002896277824203e-01 -7.554489415033660560e-01 9.985620975494384766e-01
-9.961492162095451075e-01 -7.541699286567105087e-01 9.987114071846008301e-01
-9.959646780419636469e-01 -7.526385043120247254e-01 9.985263943672180176e-01
-9.961958263652743728e-01 -7.514211441080604903e-01 9.987581372261047363e-01
-9.965086019128410744e-01 -7.502645944986757742e-01 9.990717172622680664e-01
-9.965406463949048055e-01 -7.488962025315942794e-01 9.991038441658020020e-01
-9.965258429143224461e-01 -7.474925804212617653e-01 9.990890026092529297e-01
-9.965507531888768700e-01 -7.461187334179498754e-01 9.991139769554138184e-01
-9.967321998665376048e-01 -7.448617970524087362e-01 9.992958903312683105e-01
-9.968172752910894330e-01 -7.435324696544924894e-01 9.993811845779418945e-01
-9.967565750755286169e-01 -7.420943732005653715e-01 9.993203282356262207e-01
-9.967760752427214932e-01 -7.407160442350114726e-01 9.993398785591125488e-01
-9.967187043239985611e-01 -7.392806443786875681e-01 9.992823600769042969e-01
-9.967509271612502442e-01 -7.379117326446152925e-01 9.993146657943725586e-01
-9.969274393453835259e-01 -7.366493491017378492e-01 9.994916319847106934e-01
-9.971880757264006689e-01 -7.354485157368579884e-01 9.997529387474060059e-01
-9.971087076678564198e-01 -7.339966681953017380e-01 9.996733665466308594e-01
-9.958895310561958203e-01 -7.317075935828084576e-01 9.984510540962219238e-01
-9.952253957887818858e-01 -7.298289548528628101e-01 9.977852106094360352e-01
-9.950742694930369003e-01 -7.283276603620253420e-01 9.976336956024169922e-01
-9.950393118762399514e-01 -7.269116535815213220e-01 9.975986480712890625e-01
-9.950829494455070146e-01 -7.255530512544922095e-01 9.976423978805541992e-01
-9.956544589187547034e-01 -7.245784809525982473e-01 9.982153773307800293e-01
-9.958900066700299147e-01 -7.233582898187697063e-01 9.984515309333801270e-01
-9.961016548261477643e-01 -7.221201144778993664e-01 9.986637234687805176e-01
-9.965857108056738189e-01 -7.210784480112772954e-01 9.991490244865417480e-01
-9.943586544973187502e-01 -7.691736910370683411e-01 9.983117580413818359e-01
-9.945019109845718575e-01 -7.678928907821295224e-01 9.984555840492248535e-01
-9.946981836521469056e-01 -7.666525512380450991e-01 9.986526370048522949e-01
-9.944385646638510545e-01 -7.650609269165810078e-01 9.983919858932495117e-01
-9.947544651067329324e-01 -7.639119937054759113e-01 9.987091422080993652e-01
-9.947279867008833598e-01 -7.624997290047260678e-01 9.986825585365295410e-01
-9.945124192308394395e-01 -7.609428584911274163e-01 9.984661340713500977e-01
-9.943176307788388346e-01 -7.594024610837086797e-01 9.982705712318420410e-01
-9.941928973019557025e-01 -7.579160147356057697e-01 9.981453418731689453e-01
-9.942446667411950489e-01 -7.565642262525951178e-01 9.981973171234130859e-01
-9.943253486998262503e-01 -7.552342532290764465e-01 9.982783198356628418e-01
-9.944051994977357589e-01 -7.539034242673070541e-01 9.983584880828857422e-01
-9.943900011302525543e-01 -7.525004437783625599e-01 9.983432292938232422e-01
-9.940889428431158859e-01 -7.508815825400877442e-01 9.980409741401672363e-01
-9.946016502711798601e-01 -7.498771002069726244e-01 9.985557198524475098e-01
-9.951865499447886121e-01 -7.489255111226934547e-01 9.991429448127746582e-01
-9.952399817054714548e-01 -7.475730737741557164e-01 9.991965889930725098e-01
-9.953191794485281019e-01 -7.462398049165062108e-01 9.992761015892028809e-01
-9.951768728592426116e-01 -7.447405516612806142e-01 9.991332292556762695e-01
-9.953229790403989030e-01 -7.434571267682957840e-01 9.992799162864685059e-01
-9.953390679372267069e-01 -7.420763584219266518e-01 9.992960691452026367e-01
-9.953081368846536936e-01 -7.406605550588463149e-01 9.992650151252746582e-01
-9.952253176555950764e-01 -7.392062981763917184e-01 9.991818666458129883e-01
-9.952793431025078741e-01 -7.378537233387433281e-01 9.992361068725585938e-01
-9.956296773467187000e-01 -7.367202522111734320e-01 9.995878338813781738e-01
-9.956787751979240264e-01 -7.353633210539000098e-01 9.996371269226074219e-01
-9.945549271648937983e-01 -7.331416090110169925e-01 9.985088109970092773e-01
-9.938815682430433007e-01 -7.312544923286715681e-01 9.978327751159667969e-01
-9.936871953714037087e-01 -7.297210068103758829e-01 9.976376295089721680e-01
-9.936497931389256522e-01 -7.283031180822483464e-01 9.976000785827636719e-01
-9.935113455101339808e-01 -7.268114134361095546e-01 9.974610805511474609e-01
-9.939134491935841531e-01 -7.257147846216872589e-01 9.978647828102111816e-01
-9.945153876619884370e-01 -7.247626619965839012e-01 9.984691143035888672e-01
-9.947233559482909770e-01 -7.235222964998723194e-01 9.986779093742370605e-01
-9.950513675902609156e-01 -7.223684957754906710e-01 9.990072250366210938e-01
-9.954553117010235264e-01 -7.212687948312740405e-01 9.994127750396728516e-01
-9.927435066592574797e-01 -7.690007877222249100e-01 9.980873465538024902e-01
-9.929227267762880116e-01 -7.677482631205582164e-01 9.982675313949584961e-01
-9.930827976714194927e-01 -7.664804565087072197e-01 9.984284639358520508e-01
-9.932758313138445594e-01 -7.652375963863110586e-01 9.986225366592407227e-01
-9.930244607229715692e-01 -7.636524409815014236e-01 9.983698129653930664e-01
-9.929562823787488890e-01 -7.622086112565829019e-01 9.983012676239013672e-01
-9.929590095125178095e-01 -7.608193013888306933e-01 9.983040094375610352e-01
-9.927333688358991326e-01 -7.592553252219993443e-01 9.980771541595458984e-01
-9.925717565173330925e-01 -7.577408614176973645e-01 9.979146718978881836e-01
-9.927438030868410701e-01 -7.564811020808759334e-01 9.980876445770263672e-01
-9.927848286644079812e-01 -7.551212048141121569e-01 9.981288909912109375e-01
-9.927242388663249928e-01 -7.536840453796270767e-01 9.980679750442504883e-01
-9.929458481278069515e-01 -7.524609080576913911e-01 9.982907772064208984e-01
-9.930637077350371600e-01 -7.511586728765659027e-01 9.984092712402343750e-01
-9.928389563411692542e-01 -7.495974346952983813e-01 9.981833100318908691e-01
-9.930954254864797770e-01 -7.483994755257382669e-01 9.984411597251892090e-01
-9.937698575246337596e-01 -7.475151899115206611e-01 9.991192221641540527e-01
-9.939703018566482529e-01 -7.462731440901895219e-01 9.993207454681396484e-01
-9.939327741245675973e-01 -7.448522004952509157e-01 9.992830157279968262e-01
-9.938465136977466807e-01 -7.433949101294881068e-01 9.991962909698486328e-01
-9.938375615847225841e-01 -7.419955796233624890e-01 9.991872906684875488e-01
-9.939368648252208116e-01 -7.406769455718695827e-01 9.992871284484863281e-01
-9.941591855129033872e-01 -7.394495328453501992e-01 9.995106458663940430e-01
-9.943440970395386325e-01 -7.381937247711113370e-01 9.996965527534484863e-01
-9.941594819404869776e-01 -7.366635824396915444e-01 9.995109438896179199e-01
-9.932513463954412147e-01 -7.345988489502600638e-01 9.985979199409484863e-01
-9.926337691678174258e-01 -7.327511474467734987e-01 9.979770183563232422e-01
-9.922937667294547959e-01 -7.311096903757684506e-01 9.976351857185363770e-01
-9.919848299018511062e-01 -7.294920313987682814e-01 9.973245859146118164e-01
-9.925483387382305622e-01 -7.285156002669135322e-01 9.978911280632019043e-01
-9.928454184624911916e-01 -7.273424082445167915e-01 9.981898069381713867e-01
-9.930701105708423793e-01 -7.261154550888495596e-01 9.984157085418701172e-01
-9.931512724432257633e-01 -7.247831265570268133e-01 9.984973073005676270e-01
-9.932533621030095183e-01 -7.234658139461908055e-01 9.985999464988708496e-01
-9.939120241937171585e-01 -7.225528315051099604e-01 9.992621541023254395e-01
-9.943041978867891428e-01 -7.214446451815896832e-01 9.996564388275146484e-01
-9.917893282975327462e-01 -7.693401190883280005e-01 9.985277652740478516e-01
-9.916184701409748170e-01 -7.678161074752730686e-01 9.983557462692260742e-01
-9.915046831080904788e-01 -7.663366857989014624e-01 9.982411861419677734e-01
-9.912962314208970671e-01 -7.647845497290584049e-01 9.980313181877136230e-01
-9.915492033207486955e-01 -7.635883392548357129e-01 9.982860088348388672e-01
-9.913605252386453737e-01 -7.620519255590908481e-01 9.980960488319396973e-01
-9.913952178511689084e-01 -7.606874314373721635e-01 9.981309771537780762e-01
-9.915163459829490211e-01 -7.593890397539503345e-01 9.982529282569885254e-01
-9.911403514741827792e-01 -7.577102661611323509e-01 9.978743791580200195e-01
-9.911182097726747298e-01 -7.563025658164008735e-01 9.978520870208740234e-01
-9.916190029626689162e-01 -7.552932350107968151e-01 9.983562827110290527e-01
-9.914167675285726622e-01 -7.537480046326827665e-01 9.981526732444763184e-01
-9.915055119418366703e-01 -7.524241578082491166e-01 9.982420206069946289e-01
-9.914421061602451957e-01 -7.509848131525772574e-01 9.981781840324401855e-01
-9.917573589958899039e-01 -7.498319365543990589e-01 9.984955787658691406e-01
-9.916736467875140182e-01 -7.483770919828407475e-01 9.984112977981567383e-01
-9.916820535297977690e-01 -7.469918716310716134e-01 9.984197616577148438e-01
-9.919032929376484509e-01 -7.457666468173688168e-01 9.986425042152404785e-01
-9.923323328061774973e-01 -7.446967451549953987e-01 9.990744590759277344e-01
-9.924880943480708373e-01 -7.434209408971146349e-01 9.992312788963317871e-01
-9.925319633342141179e-01 -7.420610436469660121e-01 9.992754459381103516e-01
-9.924872063119140053e-01 -7.406348868969417909e-01 9.992303848266601562e-01
-9.923357665459836552e-01 -7.391293943941827926e-01 9.990779161453247070e-01
-9.920650339229970527e-01 -7.375356404453161652e-01 9.988053441047668457e-01
-9.917426175956878254e-01 -7.359042953619450156e-01 9.984807372093200684e-01
-9.913101439873526211e-01 -7.341923435947769194e-01 9.980453252792358398e-01
-9.909527982378780742e-01 -7.325371419492223701e-01 9.976855516433715820e-01
-9.910897334132482417e-01 -7.312476344382927707e-01 9.978234171867370605e-01
-9.910913318783305392e-01 -7.298580781535013440e-01 9.978250265121459961e-01
-9.914077687621842827e-01 -7.286999284533237642e-01 9.981436133384704590e-01
-9.920028121896143913e-01 -7.277452798168042580e-01 9.987426996231079102e-01
-9.919040625689842239e-01 -7.262809597781956228e-01 9.986432790756225586e-01
-9.919814993218525334e-01 -7.249456748732715505e-01 9.987212419509887695e-01
-9.922959825261613576e-01 -7.237830748956537441e-01 9.990378618240356445e-01
-9.928931572403677519e-01 -7.228253915130862239e-01 9.996390938758850098e-01
-9.928418287505079709e-01 -7.213948323866617995e-01 9.995874166488647461e-01
-9.904607016241003814e-01 -7.693895331565275830e-01 9.985918998718261719e-01
-9.902786141672133002e-01 -7.678565390434206606e-01 9.984083175659179688e-01
-9.896438501981886793e-01 -7.659736899233797747e-01 9.977683424949645996e-01
-9.895632705865858858e-01 -7.645207787394794341e-01 9.976871013641357422e-01
-9.898052458986112967e-01 -7.633168415433887466e-01 9.979310631752014160e-01
-9.900678538477969415e-01 -7.621281067550250699e-01 9.981958270072937012e-01
-9.899933635245250496e-01 -7.606796182676680562e-01 9.981207251548767090e-01
-9.898071968356493278e-01 -7.591456874674190614e-01 9.979330301284790039e-01
-9.899024971539941431e-01 -7.578277591878224140e-01 9.980291128158569336e-01
-9.900548476008764753e-01 -7.565531580884259366e-01 9.981827139854431152e-01
-9.902213275614588639e-01 -7.552889060726889481e-01 9.983505606651306152e-01
-9.899266769494053930e-01 -7.536731079422642754e-01 9.980534911155700684e-01
-9.898898456228987230e-01 -7.522540643554523898e-01 9.980163574218750000e-01
-9.902058383037626310e-01 -7.511027525578106712e-01 9.983349442481994629e-01
-9.903287473371614746e-01 -7.498043638983186154e-01 9.984588623046875000e-01
-9.903120165740773029e-01 -7.484001010139629262e-01 9.984419941902160645e-01
-9.903311121093287817e-01 -7.470229095111903250e-01 9.984612464904785156e-01
-9.902492909923379383e-01 -7.455696830743130388e-01 9.983787536621093750e-01
-9.902226281861509216e-01 -7.441581383845130571e-01 9.983518719673156738e-01
-9.902108043253140535e-01 -7.427577993313777549e-01 9.983399510383605957e-01
-9.902406595739270401e-01 -7.413886984687800830e-01 9.983700513839721680e-01
-9.904466903490086738e-01 -7.401511679559924506e-01 9.985777735710144043e-01
-9.904607016241003814e-01 -7.387698339353921950e-01 9.985918998718261719e-01
-9.901936597271007168e-01 -7.371792221153075086e-01 9.983226656913757324e-01
-9.900086754243088150e-01 -7.356503357116065400e-01 9.981361627578735352e-01
-9.895117776726414238e-01 -7.338906325225001970e-01 9.976351857185363770e-01
-9.893828384702160195e-01 -7.324047123713922636e-01 9.975051879882812500e-01
-9.899182228889070734e-01 -7.314099960850320992e-01 9.980449676513671875e-01
-9.900808600947175186e-01 -7.301388912963355793e-01 9.982089400291442871e-01
-9.904673821054731375e-01 -7.290321195239226615e-01 9.985986351966857910e-01
-9.907079976735022608e-01 -7.278170722606369658e-01 9.988412261009216309e-01
-9.906426708423788918e-01 -7.263770201217238931e-01 9.987753629684448242e-01
-9.909339516540938142e-01 -7.251981288060073139e-01 9.990690350532531738e-01
-9.913632169217746481e-01 -7.241192065453910809e-01 9.995018243789672852e-01
-9.915650502262589594e-01 -7.228732748414955500e-01 9.997053146362304688e-01
-9.901191694038287139e-01 -7.204278705410782635e-01 9.982475638389587402e-01
-9.887176391051905044e-01 -7.691166995327600731e-01 9.982377886772155762e-01
-9.891217418799422845e-01 -7.680391687117883448e-01 9.986457824707031250e-01
-9.888661151429553042e-01 -7.664491582383357038e-01 9.983876943588256836e-01
-9.884470762101300600e-01 -7.647334398178310400e-01 9.979646205902099609e-01
-9.882709712317394590e-01 -7.632065099797108454e-01 9.977868199348449707e-01
-9.886418956632609945e-01 -7.621017573449618832e-01 9.981613159179687500e-01
-9.886369956588337837e-01 -7.607067826600113492e-01 9.981563687324523926e-01
-9.888131006372244958e-01 -7.594508413501013244e-01 9.983341693878173828e-01
-9.885568835382584352e-01 -7.578629708884252469e-01 9.980754852294921875e-01
-9.885753028320088953e-01 -7.564859811083465280e-01 9.980940818786621094e-01
-9.888442127135275150e-01 -7.553002695352222240e-01 9.983655810356140137e-01
-9.887986958049322928e-01 -7.538740777275516614e-01 9.983196258544921875e-01
-9.887188788653465954e-01 -7.524219114604837610e-01 9.982390403747558594e-01
-9.885078244577881756e-01 -7.508702818822479141e-01 9.980259537696838379e-01
-9.886253064916459277e-01 -7.495683401718368222e-01 9.981445670127868652e-01
-9.888158163023288427e-01 -7.483213341753837122e-01 9.983369112014770508e-01
-9.890363755377521437e-01 -7.470964906925061655e-01 9.985595941543579102e-01
-9.889691333083229230e-01 -7.456540325190793572e-01 9.984917044639587402e-01
-9.888825862421745105e-01 -7.441972354692301117e-01 9.984043240547180176e-01
-9.890315345695227522e-01 -7.429175759169969195e-01 9.985547065734863281e-01
-9.890857297992119435e-01 -7.415664560879765554e-01 9.986094236373901367e-01
-9.891978395390591539e-01 -7.402585236073311314e-01 9.987226128578186035e-01
-9.892009094213508602e-01 -7.388688299165039330e-01 9.987257122993469238e-01
-9.890260442031163501e-01 -7.373464720108413584e-01 9.985491633415222168e-01
-9.888347669218606750e-01 -7.358123936860225811e-01 9.983560442924499512e-01
-9.883537399812211133e-01 -7.340636527072413875e-01 9.978703856468200684e-01
-9.883989026726286431e-01 -7.327063332076134694e-01 9.979159832000732422e-01
-9.888927404682166244e-01 -7.316808609145801778e-01 9.984145760536193848e-01
-9.889833019958235161e-01 -7.303561825094835314e-01 9.985060095787048340e-01
-9.891834347067669508e-01 -7.291120124772392241e-01 9.987080693244934082e-01
-9.892519166963524846e-01 -7.277704267163681573e-01 9.987772107124328613e-01
-9.894098385257843464e-01 -7.264943212451839827e-01 9.989366531372070312e-01
-9.900017944823126248e-01 -7.255358589514977474e-01 9.995343089103698730e-01
-9.902146199758087297e-01 -7.242984134244261352e-01 9.997491836547851562e-01
-9.890237417913975149e-01 -7.220355967398157659e-01 9.985468387603759766e-01
-9.874212632350991559e-01 -7.194762224735552492e-01 9.969289302825927734e-01
-9.873805128414919752e-01 -7.691593168703894090e-01 9.982931017875671387e-01
-9.877465525875642749e-01 -7.680525542196104949e-01 9.986631870269775391e-01
-9.875971065002244753e-01 -7.665446545691328994e-01 9.985120892524719238e-01
-9.874540273467831142e-01 -7.650421089689262155e-01 9.983674287796020508e-01
-9.869565811594165350e-01 -7.632659157761869650e-01 9.978644847869873047e-01
-9.872143830292142708e-01 -7.620741336974515834e-01 9.981251358985900879e-01
-9.873773293745427004e-01 -7.608085355677851602e-01 9.982898831367492676e-01
-9.873087079758587903e-01 -7.593643735262862737e-01 9.982205033302307129e-01
-9.870789677776878879e-01 -7.577967113387047426e-01 9.979882240295410156e-01
-9.871355037925828579e-01 -7.564490721690558805e-01 9.980453848838806152e-01
-9.868544154515822564e-01 -7.548430254475729795e-01 9.977611899375915527e-01
-9.870484300762116803e-01 -7.536005067633911869e-01 9.979573488235473633e-01
-9.875011898201053739e-01 -7.525546256864642514e-01 9.984151124954223633e-01
-9.876509306729034376e-01 -7.512769710328417450e-01 9.985665082931518555e-01
-9.875862001782687027e-01 -7.498360545484890061e-01 9.985010623931884766e-01
-9.874204240845408931e-01 -7.483187428670242669e-01 9.983334541320800781e-01
-9.875685732038644860e-01 -7.470393649390117963e-01 9.984832406044006348e-01
-9.874880432806667496e-01 -7.455869090559091861e-01 9.984018206596374512e-01
-9.872801157264072813e-01 -7.440386701335992559e-01 9.981915950775146484e-01
-9.873510952487573045e-01 -7.427008154533536466e-01 9.982633590698242188e-01
-9.877765597112155849e-01 -7.416289102714143100e-01 9.986935257911682129e-01
-9.880358943613963829e-01 -7.404313087729218479e-01 9.989557266235351562e-01
-9.881164832376857499e-01 -7.390992766858981433e-01 9.990372061729431152e-01
-9.882036159071486692e-01 -7.377719029293228203e-01 9.991253018379211426e-01
-9.879121518220170817e-01 -7.361621647872153007e-01 9.988306164741516113e-01
-9.878047982421174211e-01 -7.346901822104768831e-01 9.987220764160156250e-01
-9.876439742080884709e-01 -7.331788083306322035e-01 9.985594749450683594e-01
-9.877539806771126196e-01 -7.318685574429737439e-01 9.986706972122192383e-01
-9.875969296409494724e-01 -7.303604986872728189e-01 9.985119104385375977e-01
-9.877127724660471619e-01 -7.290543120109550523e-01 9.986290335655212402e-01
-9.880605367537073080e-01 -7.279186587858180735e-01 9.989806413650512695e-01
-9.886198247342176115e-01 -7.269375599692707857e-01 9.995461106300354004e-01
-9.888174354974378355e-01 -7.256894513184578566e-01 9.997459053993225098e-01
-9.878279668071369146e-01 -7.235712653193483446e-01 9.987455010414123535e-01
-9.861836471747563726e-01 -7.209771208960640276e-01 9.970830082893371582e-01
-9.858104741045939923e-01 -7.193151266903037300e-01 9.967057108879089355e-01
-9.861461959370066976e-01 -7.692822550307708562e-01 9.984526634216308594e-01
-9.862999643388380422e-01 -7.680103807018148210e-01 9.986083507537841797e-01
-9.857087919455800318e-01 -7.661590543872317527e-01 9.980098009109497070e-01
-9.857567121136850963e-01 -7.648052403365528384e-01 9.980583190917968750e-01
-9.857768456486876163e-01 -7.634297718257150311e-01 9.980787038803100586e-01
-9.859481573061643633e-01 -7.621711122688589191e-01 9.982521533966064453e-01
-9.859186045734997794e-01 -7.607569777328193616e-01 9.982222318649291992e-01
-9.854265692356337647e-01 -7.589867172575104348e-01 9.977240562438964844e-01
-9.853465060555072208e-01 -7.575345697321606009e-01 9.976429939270019531e-01
-9.856427398219754776e-01 -7.563714143151507585e-01 9.979429244995117188e-01
-9.857483525757602116e-01 -7.550614113564966257e-01 9.980498552322387695e-01
-9.856862447411766093e-01 -7.536228767484500768e-01 9.979869723320007324e-01
-9.857588314331591217e-01 -7.522873103023803854e-01 9.980604648590087891e-01
-9.856530420694182837e-01 -7.508156620360220135e-01 9.979533553123474121e-01
-9.861599715135872524e-01 -7.498101828030109273e-01 9.984666109085083008e-01
-9.862553997598999533e-01 -7.484909755174627977e-01 9.985632300376892090e-01
-9.864771041248681094e-01 -7.472671544385033338e-01 9.987877011299133301e-01
-9.865894869269722367e-01 -7.459600496339964248e-01 9.989014863967895508e-01
-9.867204726444587237e-01 -7.446666670568664603e-01 9.990341067314147949e-01
-9.867912343668940878e-01 -7.433275494207577383e-01 9.991057515144348145e-01
-9.872117426725147693e-01 -7.422511947256681397e-01 9.995315074920654297e-01
-9.871479864783405667e-01 -7.408102344607949696e-01 9.994669556617736816e-01
-9.868805990047118115e-01 -7.392169253618918745e-01 9.991962313652038574e-01
-9.867992406849067644e-01 -7.377634524082853362e-01 9.991138577461242676e-01
-9.866965125604061360e-01 -7.362942624638402211e-01 9.990098476409912109e-01
-9.866374070950774122e-01 -7.348578530636068473e-01 9.989500045776367188e-01
-9.863004352987212453e-01 -7.332150448443278679e-01 9.986088275909423828e-01
-9.861786921689406071e-01 -7.317328847836322980e-01 9.984855651855468750e-01
-9.860266898666708579e-01 -7.302286590748010564e-01 9.983316659927368164e-01
-9.867769289604449989e-01 -7.293917683578888811e-01 9.990912675857543945e-01
-9.873205344055102639e-01 -7.284003152904178213e-01 9.996416568756103516e-01
-9.873956525068644519e-01 -7.270623603885028041e-01 9.997177124023437500e-01
-9.862331469054237409e-01 -7.248146238086174975e-01 9.985406994819641113e-01
-9.846766833617718317e-01 -7.222811917021978445e-01 9.969648122787475586e-01
-9.845907920530919677e-01 -7.208287730865363674e-01 9.968778491020202637e-01
-9.845580603412166232e-01 -7.194154405398478502e-01 9.968447089195251465e-01
-9.850110190548072575e-01 -7.694829882018678902e-01 9.987131953239440918e-01
-9.847443617711119090e-01 -7.678830808551638798e-01 9.984428286552429199e-01
-9.841003515103352584e-01 -7.659902084549645718e-01 9.977898597717285156e-01
-9.839040033340693547e-01 -7.644469685370276490e-01 9.975907802581787109e-01
-9.838846624508383876e-01 -7.630415597328567001e-01 9.975711703300476074e-01
-9.841583153731491285e-01 -7.618630198575835344e-01 9.978486299514770508e-01
-9.841889433371714402e-01 -7.604959179288123261e-01 9.978796839714050293e-01
-9.841138724925332371e-01 -7.590472039260838244e-01 9.978035688400268555e-01
-9.842153386458970532e-01 -7.577346156404694000e-01 9.979064464569091797e-01
-9.842317989720510418e-01 -7.563564158232970458e-01 9.979231357574462891e-01
-9.841427368501819428e-01 -7.548972273601325389e-01 9.978328347206115723e-01
-9.841935875006220247e-01 -7.535454144863045212e-01 9.978843927383422852e-01
-9.843062231610189006e-01 -7.522406761227705685e-01 9.979985952377319336e-01
-9.845254394332633163e-01 -7.510169213708841607e-01 9.982208609580993652e-01
-9.847626444905186460e-01 -7.498062438521421180e-01 9.984613656997680664e-01
-9.848617003818385118e-01 -7.484899032519346518e-01 9.985617995262145996e-01
-9.850313005281041701e-01 -7.472267962754179926e-01 9.987337589263916016e-01
-9.856014744687041640e-01 -7.462665118647171525e-01 9.993118643760681152e-01
-9.857145216372549257e-01 -7.449591399076530562e-01 9.994264841079711914e-01
-9.856159360409680881e-01 -7.434918048948442326e-01 9.993265271186828613e-01
-9.854537430414717081e-01 -7.419768566470378302e-01 9.991620779037475586e-01
-9.855170565102856495e-01 -7.406318385265951987e-01 9.992262721061706543e-01
-9.855157631989448497e-01 -7.392381797328921866e-01 9.992249608039855957e-01
-9.854747299573179964e-01 -7.378147717183360932e-01 9.991833567619323730e-01
-9.853181217113382573e-01 -7.363051131875271160e-01 9.990245699882507324e-01
-9.852473423088757842e-01 -7.348599138716864765e-01 9.989528059959411621e-01
-9.849800383695102024e-01 -7.332686118645739271e-01 9.986817836761474609e-01
-9.854122982916909690e-01 -7.321978672236484353e-01 9.991200566291809082e-01
-9.858262167075858562e-01 -7.311122983822010424e-01 9.995397329330444336e-01
-9.860106899342692133e-01 -7.298557218809074154e-01 9.997267723083496094e-01
-9.858473799840694607e-01 -7.283416826230409979e-01 9.995611906051635742e-01
-9.842837077863154649e-01 -7.257954995854281055e-01 9.979757666587829590e-01
-9.833050238226997974e-01 -7.236842705187019886e-01 9.969834685325622559e-01
-9.831019739422139914e-01 -7.221455558450775580e-01 9.967775940895080566e-01
-9.834310628915364783e-01 -7.209975499668705989e-01 9.971112608909606934e-01
-9.839754881790810925e-01 -7.200061824334107463e-01 9.976632595062255859e-01
-9.832788614367360402e-01 -7.692172727756571016e-01 9.983683228492736816e-01
-9.831109686463680442e-01 -7.676946752484893333e-01 9.981978535652160645e-01
-9.829412560390415887e-01 -7.661711344214102715e-01 9.980255365371704102e-01
-9.824530167601989161e-01 -7.644002433903022142e-01 9.975298047065734863e-01
-9.825017408916694173e-01 -7.630477601843692614e-01 9.975792765617370605e-01
-9.825567463268353174e-01 -7.617000084813372318e-01 9.976351261138916016e-01
-9.823803414894033414e-01 -7.601730341482515474e-01 9.974560141563415527e-01
-9.826761498008241835e-01 -7.590112928005140480e-01 9.977563619613647461e-01
-9.828396398082279717e-01 -7.577466998616274596e-01 9.979223608970642090e-01
-9.830404654151680965e-01 -7.565103762456988346e-01 9.981262683868408203e-01
-9.829389665919002761e-01 -7.550412547384315332e-01 9.980232119560241699e-01
-9.827490011829383976e-01 -7.535045903888228924e-01 9.978303313255310059e-01
-9.827212342983776550e-01 -7.520925968780746151e-01 9.978021383285522461e-01
-9.829080884073779778e-01 -7.508446311827068342e-01 9.979918599128723145e-01
-9.830758637902002883e-01 -7.495815893702132415e-01 9.981622099876403809e-01
-9.834896079812887049e-01 -7.485052723911697070e-01 9.985823035240173340e-01
-9.838649599049295036e-01 -7.473986194824543405e-01 9.989634156227111816e-01
-9.843360576820981978e-01 -7.463635025983033078e-01 9.994417428970336914e-01
-9.841361126317510477e-01 -7.448191901157682482e-01 9.992387294769287109e-01
-9.834658329532821597e-01 -7.429201479519582652e-01 9.985581636428833008e-01
-9.834478108950153175e-01 -7.415148019192507878e-01 9.985398650169372559e-01
-9.834033134351904959e-01 -7.400895820391338864e-01 9.984946846961975098e-01
-9.835076300395554361e-01 -7.387762719813799617e-01 9.986006021499633789e-01
-9.838438265467012167e-01 -7.376365185402012914e-01 9.989419579505920410e-01
-9.839588272377259859e-01 -7.363302851092783374e-01 9.990587234497070312e-01
-9.841982799272054327e-01 -7.351166817890318894e-01 9.993018507957458496e-01
-9.843847818135686989e-01 -7.338629257003087547e-01 9.994912147521972656e-01
-9.846566976894373102e-01 -7.326721973613783412e-01 9.997673034667968750e-01
-9.846070930013740563e-01 -7.312419145091449968e-01 9.997169375419616699e-01
