-9.452117336366678835e-01 -6.409213130856162843e-01 1.002284707307471656e+00
-9.452117336366678835e-01 -6.395243616621515415e-01 1.002284707307471656e+00
-9.452117336366678835e-01 -6.381274102386867986e-01 1.002284707307471656e+00
-9.452117336366678835e-01 -6.367304588152220557e-01 1.002284707307471656e+00
-9.451915064776033049e-01 -6.353199115047664103e-01 1.002263258809234392e+00
-9.451915064776033049e-01 -6.339229899755122188e-01 1.002263258809234392e+00
-9.452367973405693125e-01 -6.325563772792217598e-01 1.002311284386696366e+00
-9.413560429921055128e-01 -6.285681074016845615e-01 9.981962056187708709e-01
-9.437920778959302259e-01 -7.722166003667222389e-01 1.002261154904334095e+00
-9.438081138347681476e-01 -7.708327787406071829e-01 1.002278184289254970e+00
-9.438172668789304165e-01 -7.694432983918056967e-01 1.002287904375731342e+00
-9.451966624910888015e-01 -7.691688476751560311e-01 1.003752755238215721e+00
-9.452021325464549095e-01 -7.677742933832552019e-01 1.003758564170222245e+00
-9.451899106833973052e-01 -7.663653781902496354e-01 1.003745585147755248e+00
-9.451833822629523985e-01 -7.649611070255651901e-01 1.003738652283655108e+00
-9.451915338015645096e-01 -7.635687143251403963e-01 1.003747308820083894e+00
-9.452002490677007263e-01 -7.621767520646804961e-01 1.003756564007648677e+00
-9.452193773312210778e-01 -7.607931452731868660e-01 1.003776877290559311e+00
-9.452297719052246139e-01 -7.594024651666012593e-01 1.003787915821173771e+00
-9.452297719052246139e-01 -7.580034186206052738e-01 1.003787915821173771e+00
-9.473040670566060806e-01 -7.582647310975219046e-01 1.005990716101793803e+00
-9.473055031256756298e-01 -7.568637617296768427e-01 1.005992241137103838e+00
-9.473069710277924882e-01 -7.554628134971120845e-01 1.005993799977557668e+00
-9.473084687919669511e-01 -7.540618846895609240e-01 1.005995390530060041e+00
-9.473084687919669511e-01 -7.526597614379998413e-01 1.005995390530060041e+00
-9.473084687919669511e-01 -7.512576381864388697e-01 1.005995390530060041e+00
-9.473062497702527951e-01 -7.498537584366250508e-01 1.005993034037228506e+00
-9.473062497702527951e-01 -7.484516384694661628e-01 1.005993034037228506e+00
-9.452277010934707624e-01 -7.454103666561642250e-01 1.003785716720091425e+00
-9.452174157707059488e-01 -7.440032273517408479e-01 1.003774794208964094e+00
-9.452113856578874262e-01 -7.425994615734875515e-01 1.003768390523259058e+00
-9.451983505976259137e-01 -7.411902206203344612e-01 1.003754547925023832e+00
-9.451445359990910955e-01 -7.397491007792471596e-01 1.003697399446093597e+00
-9.451345359326498441e-01 -7.383423683055041487e-01 1.003686779863268708e+00
-9.451657993892409459e-01 -7.369678395664552850e-01 1.003719980129347711e+00
-9.451983505976259137e-01 -7.355942204646505056e-01 1.003754547925023832e+00
-9.473107541260746833e-01 -7.358360575825197980e-01 1.005997817443419207e+00
-9.451577477441859276e-01 -7.327647416844610406e-01 1.003711429675004263e+00
-9.451266728840335141e-01 -7.313417559255795952e-01 1.003678429689144780e+00
-9.451294490394281933e-01 -7.299450060658091433e-01 1.003681377830771826e+00
-9.451283662641862815e-01 -7.285452733595977337e-01 1.003680227976275319e+00
-9.451320384072311453e-01 -7.271492021147381024e-01 1.003684127613086563e+00
-9.451432612295861402e-01 -7.257589180335958234e-01 1.003696045703053930e+00
-9.451344927837781462e-01 -7.243532793758297172e-01 1.003686734041271400e+00
-9.451210177836090187e-01 -7.229440665266313459e-01 1.003672424248311712e+00
-9.438231781123500586e-01 -7.205543554961393315e-01 1.002294181817313001e+00
-9.438781734040589955e-01 -7.191992951895509467e-01 1.002352584134807767e+00
-9.438295282699230571e-01 -7.177652554184685840e-01 1.002300925374937535e+00
-9.451236445658902641e-01 -7.173505179484513938e-01 1.003675213762977636e+00
-9.438338019978828042e-01 -7.149745448046042062e-01 1.002305463865587054e+00
-9.405265374231630560e-01 -7.110771350375634237e-01 9.987933101933262892e-01
-9.393834222354444652e-01 -7.088224991767927419e-01 9.975793776174290972e-01
-9.395017312051837655e-01 -7.075212021618036973e-01 9.977050159729775602e-01
-9.393057584055760634e-01 -7.059833403688943188e-01 9.974969024180275756e-01
-9.393057584055760634e-01 -7.045930620302396363e-01 9.974969024180275756e-01
-9.391851302252051115e-01 -7.031124764923907255e-01 9.973688011739038073e-01
-9.388064927919294034e-01 -7.014394736238956929e-01 9.969667066871489292e-01
-9.389472781415455493e-01 -7.001549151803745374e-01 9.971162138618799853e-01
-9.388636137998783715e-01 -6.987029043760923930e-01 9.970273664116126033e-01
-9.404641158389475120e-01 -6.985020061833425720e-01 9.987270215153939423e-01
-9.437891142204174466e-01 -6.995746365318115112e-01 1.002258007625487668e+00
-9.438172668789275299e-01 -6.981985485407103953e-01 1.002287904375728234e+00
-9.438750324715252660e-01 -6.968442398540504179e-01 1.002349248617650623e+00
-9.438429707696585069e-01 -6.954235754105648759e-01 1.002315200654021909e+00
-9.438134862712787010e-01 -6.940049009461218832e-01 1.002283889554797858e+00
-9.439008615082740139e-01 -6.926720700935453667e-01 1.002376677794911242e+00
-9.404236052261071288e-01 -6.887283879743686388e-01 9.986840012203922479e-01
-9.419164754498270398e-01 -6.884275635308046981e-01 1.000269356585827829e+00
-9.419209371226462402e-01 -6.870366753788111902e-01 1.000274094664751479e+00
-9.419241225857866162e-01 -6.856448450414732720e-01 1.000277477471241072e+00
-9.438723523688846706e-01 -6.856659618900479147e-01 1.002346402479363574e+00
-9.438408474539093929e-01 -6.842460847006283098e-01 1.002312945796257404e+00
-9.438117584956965400e-01 -6.828280486669952021e-01 1.002282054741398865e+00
-9.438554576314373001e-01 -6.814626516708174320e-01 1.002328461092206080e+00
-9.438454619247885757e-01 -6.800584371698107367e-01 1.002317846139268331e+00
-9.437809731514638090e-01 -6.786150696330470744e-01 1.002249362207325412e+00
-9.437669344720228670e-01 -6.772080938970503894e-01 1.002234453814471404e+00
-9.438155016710920719e-01 -6.758459904423971265e-01 1.002286029811102042e+00
-9.405193010363063211e-01 -6.720935775116440025e-01 9.987856255034267550e-01
-9.388552806140237905e-01 -6.695148596175458655e-01 9.970185169746718090e-01
-9.388552806140237905e-01 -6.681252480367705360e-01 9.970185169746718090e-01
-9.404579114241977678e-01 -6.678737576289692779e-01 9.987204327295392536e-01
-9.419057292677776028e-01 -6.675078105388565497e-01 1.000257944664617593e+00
-9.438338019978664839e-01 -6.674772127933449317e-01 1.002305463865569735e+00
-9.451304919928549264e-01 -6.669953295381388925e-01 1.003682485396442781e+00
-9.451482771819806894e-01 -6.656089549365135083e-01 1.003701372399852465e+00
-9.451363841803427368e-01 -6.642016711159333120e-01 1.003688742612173446e+00
-9.451223667328308986e-01 -6.627929326754913308e-01 1.003673856766592598e+00
-9.437809731514688050e-01 -6.604553415448874976e-01 1.002249362207330741e+00
-9.437702646679727581e-01 -6.590509614665839289e-01 1.002237990320145711e+00
-9.451202810402161703e-01 -6.585948165649051500e-01 1.003671641862761810e+00
-9.451202810402161703e-01 -6.571959320777239766e-01 1.003671641862761810e+00
-9.437724708202130941e-01 -6.548618333318694251e-01 1.002240333146223739e+00
-9.437724708202130941e-01 -6.534649437556494522e-01 1.002240333146223739e+00
-9.437669344720241993e-01 -6.520642290246360107e-01 1.002234453814472737e+00
-9.437669344720228670e-01 -6.506673476428342928e-01 1.002234453814471404e+00
-9.437724708202130941e-01 -6.492742750269899776e-01 1.002240333146223739e+00
-9.438295282699250555e-01 -6.479165540348119645e-01 1.002300925374939533e+00
-9.394839914267887337e-01 -6.435429040602865802e-01 9.976861771935490175e-01
-9.396774834626658857e-01 -6.422846168236141517e-01 9.978916562984121441e-01
-9.418588649346971708e-01 -6.423815687890738202e-01 1.000208177028612644e+00
-9.438142563185776268e-01 -6.423182645090809162e-01 1.002284707307471656e+00
-9.438142563185776268e-01 -6.409213130856162843e-01 1.002284707307471656e+00
-9.438142563185776268e-01 -6.395243616621515415e-01 1.002284707307471656e+00
-9.438142563185776268e-01 -6.381274102386867986e-01 1.002284707307471656e+00
-9.437940590649775974e-01 -6.367168330340203797e-01 1.002263258809234392e+00
-9.437940590649775974e-01 -6.353199115047664103e-01 1.002263258809234392e+00
-9.437940590649775974e-01 -6.339229899755122188e-01 1.002263258809234392e+00
-9.389774624603977049e-01 -6.292980094387614631e-01 9.971482681363132983e-01
-9.399617534171796907e-01 -6.285664270407884668e-01 9.981935371253319866e-01
-9.423706345883261504e-01 -7.721969352571701473e-01 1.002235631527341742e+00
-9.423706345883261504e-01 -7.708000522339120142e-01 1.002235631527341742e+00
-9.423706345883261504e-01 -7.694031692106536591e-01 1.002235631527341742e+00
-9.437458468227463149e-01 -7.691270465359367758e-01 1.003698205435802127e+00
-9.437920171902230981e-01 -7.677656841730250425e-01 1.003747308820083894e+00
-9.437920171902230981e-01 -7.663666942237300495e-01 1.003747308820083894e+00
-9.438099886179367459e-01 -7.649822705788225097e-01 1.003766421899951800e+00
-9.438239345813661529e-01 -7.635945368801902999e-01 1.003781253794062023e+00
-9.459007432776915802e-01 -7.638726495453703746e-01 1.005989993751491340e+00
-9.438301986758758089e-01 -7.608015117125971338e-01 1.003787915821173771e+00
-9.459014224809562110e-01 -7.610689645705156492e-01 1.005990716101793803e+00
-9.459028564236815484e-01 -7.596679994537586245e-01 1.005992241137103838e+00
-9.459058176988003330e-01 -7.582682544442442829e-01 1.005995390530060041e+00
-9.459058176988003330e-01 -7.568661311926832003e-01 1.005995390530060041e+00
-9.459073411699787659e-01 -7.554652246876744082e-01 1.005997010781203960e+00
-9.459096668025266386e-01 -7.540649531371336201e-01 1.005999484151786305e+00
-9.459073411699787659e-01 -7.526609736680468510e-01 1.005997010781203960e+00
-9.459050781080829973e-01 -7.512570507884493987e-01 1.005994603956134270e+00
-9.438324066370885612e-01 -7.482118431334566777e-01 1.003790264045236746e+00
-9.438178608367132627e-01 -7.468012838667906772e-01 1.003774794208964094e+00
-9.438081419504350533e-01 -7.453945798912545717e-01 1.003764457921128672e+00
-9.437989860917396223e-01 -7.439883485581108014e-01 1.003754720427742386e+00
-9.437870943064839979e-01 -7.425799917174668030e-01 1.003742073205441176e+00
-9.437807461134288811e-01 -7.411760236612093822e-01 1.003735321737343478e+00
-9.437677768177478166e-01 -7.397668845121034842e-01 1.003721528554735398e+00
-9.437791153681571732e-01 -7.383768013440884515e-01 1.003733587397416915e+00
-9.438138825087404316e-01 -7.370049794690765044e-01 1.003770563153897344e+00
-9.459021563576476277e-01 -7.372335520315532742e-01 1.005991496598704682e+00
-9.459036019627246050e-01 -7.358325587650351718e-01 1.005993034037228506e+00
-9.459007432776915802e-01 -7.344282192214851568e-01 1.005989993751491340e+00
-9.437544370251499393e-01 -7.313628227296224971e-01 1.003707341339039161e+00
-9.437289431831134001e-01 -7.299441698138211532e-01 1.003680227976275319e+00
-9.437326098889267101e-01 -7.285481040041469347e-01 1.003684127613086563e+00
-9.437470026414405133e-01 -7.271602917797521659e-01 1.003699434678985591e+00
-9.437647979001544396e-01 -7.257750534854872093e-01 1.003718360398549336e+00
-9.437647979001544396e-01 -7.243761038835490051e-01 1.003718360398549336e+00
-9.437560009504413205e-01 -7.229704153211367057e-01 1.003709004614182110e+00
-9.437392694743026444e-01 -7.215586863041885124e-01 1.003691210255000410e+00
-9.423695272219643204e-01 -7.191145353510758342e-01 1.002234453814471404e+00
-9.423695272219645425e-01 -7.177176539692751156e-01 1.002234453814471626e+00
-9.437310657642848932e-01 -7.173557151576331892e-01 1.003682485396448332e+00
-9.437335997804809917e-01 -7.159587379757045289e-01 1.003685180388449671e+00
-9.437415507726087949e-01 -7.145658548132527432e-01 1.003693636474966011e+00
-9.437406390986756710e-01 -7.131662507366338666e-01 1.003692666886073281e+00
-9.423773539057352933e-01 -7.107391499298026938e-01 1.002242777695823372e+00
-9.424528114497565667e-01 -7.093990550267073036e-01 1.002323028752583722e+00
-9.404938900708088578e-01 -7.065304429820256082e-01 1.000239665017252921e+00
-9.390884974785285166e-01 -7.040826472093794086e-01 9.987449935147996172e-01
-9.373423037693369153e-01 -7.013840070395382931e-01 9.968878711781458124e-01
-9.375570072113271758e-01 -7.001549151803745374e-01 9.971162138618799853e-01
-9.374734667489287299e-01 -6.987029043760923930e-01 9.970273664116126033e-01
-9.424774651640175360e-01 -7.010353639911036661e-01 1.002349248617650623e+00
-9.423822589821859719e-01 -6.995676472953583636e-01 1.002247994371952444e+00
-9.424454509349461384e-01 -6.982175632587390712e-01 1.002315200654021909e+00
-9.424197851031913542e-01 -6.968015926612772803e-01 1.002287904375728234e+00
-9.437216055832098327e-01 -6.963652405513874877e-01 1.003672424248311712e+00
-9.423716592214904653e-01 -6.939722405051712562e-01 1.002236721251309026e+00
-9.437260881771437626e-01 -6.935707637800702097e-01 1.003677191603317587e+00
-9.437364645036594446e-01 -6.921794820302401563e-01 1.003688227095911101e+00
-9.437429015875170579e-01 -6.907852861370517017e-01 1.003695073101684709e+00
-9.437429015875170579e-01 -6.893863689921811977e-01 1.003695073101684709e+00
-9.437397145477292026e-01 -6.879851284990992077e-01 1.003691683602142559e+00
-9.437544370251499393e-01 -6.865969269236779082e-01 1.003707341339039161e+00
-9.437582811588401954e-01 -6.852007836522500117e-01 1.003711429675002931e+00
-9.423848769379494783e-01 -6.828067410899393286e-01 1.002250778635862760e+00
-9.424479384014979866e-01 -6.814554347810880541e-01 1.002317846139268331e+00
-9.424479384014979866e-01 -6.800584371698107367e-01 1.002317846139268331e+00
-9.424320283391168784e-01 -6.786499826436215299e-01 1.002300925374939533e+00
-9.404980441517274414e-01 -6.758632037598533149e-01 1.000244082990139560e+00
-9.375478698029877656e-01 -6.723534074265624660e-01 9.971064959909261560e-01
-9.376104246167181744e-01 -6.710084410790724263e-01 9.971730246590988500e-01
-9.375478698030218494e-01 -6.695739390205240893e-01 9.971064959909623493e-01
-9.374651459017712130e-01 -6.681252480367705360e-01 9.970185169746718090e-01
-9.374651459017712130e-01 -6.667356364559953175e-01 9.970185169746718090e-01
-9.373349492376487069e-01 -6.652536205513849277e-01 9.968800494427896286e-01
-9.404873610018016361e-01 -6.660968865768834846e-01 1.000232721182884976e+00
-9.424806014458720904e-01 -6.661115461273886540e-01 1.002352584134813096e+00
-9.423835451147557496e-01 -6.646460480267678550e-01 1.002249362207325412e+00
-9.437401717672364576e-01 -6.642039391381376889e-01 1.003692169866956752e+00
-9.437433411338097544e-01 -6.628072519405964202e-01 1.003695540570576528e+00
-9.437272523102943067e-01 -6.613970585340719355e-01 1.003678429689141227e+00
-9.423835451147608566e-01 -6.590584393842596755e-01 1.002249362207330741e+00
-9.423902861107472662e-01 -6.576662415648798499e-01 1.002256531431542141e+00
-9.423728524869934287e-01 -6.562571888448519575e-01 1.002237990320145711e+00
-9.437208699306905979e-01 -6.557970475905428032e-01 1.003671641862761810e+00
-9.423750553726507606e-01 -6.534649437556494522e-01 1.002240333146223739e+00
-9.423750553726507606e-01 -6.520680541794295904e-01 1.002240333146223739e+00
-9.423695272219656527e-01 -6.506673476428350700e-01 1.002234453814472737e+00
-9.437272523102943067e-01 -6.502059069514311007e-01 1.003678429689141227e+00
-9.405235097167277125e-01 -6.466044585499961528e-01 1.000271166279541379e+00
-9.380248934492390056e-01 -6.434962330575874079e-01 9.976138230210844782e-01
-9.405213297179899623e-01 -6.438146762438059501e-01 1.000268847794296256e+00
-9.424167790004874812e-01 -6.437152159325456591e-01 1.002284707307471656e+00
-9.424167790004874812e-01 -6.423182645090809162e-01 1.002284707307471656e+00
-9.424167790004874812e-01 -6.409213130856162843e-01 1.002284707307471656e+00
-9.424167790004874812e-01 -6.395243616621515415e-01 1.002284707307471656e+00
-9.423966116523520009e-01 -6.381137545632745711e-01 1.002263258809234392e+00
-9.423966116523520009e-01 -6.367168330340203797e-01 1.002263258809234392e+00
-9.423966116523520009e-01 -6.353199115047664103e-01 1.002263258809234392e+00
-9.423966116523520009e-01 -6.339229899755122188e-01 1.002263258809234392e+00
-9.384268998597914413e-01 -6.298616422779482749e-01 9.980413672738126518e-01
-9.385633917098331613e-01 -6.285620145627976996e-01 9.981865298993275459e-01
-9.409732256961922392e-01 -7.721969352571701473e-01 1.002235631527341742e+00
-9.409754724824196392e-01 -7.708018926932300730e-01 1.002238024591407761e+00
-9.423213857164095542e-01 -7.705055157640222641e-01 1.003671563998494332e+00
-9.423246999470826779e-01 -7.691093364038733560e-01 1.003675094003366963e+00
-9.423941251667510288e-01 -7.677670077222004119e-01 1.003749039177340263e+00
-9.424285607671504250e-01 -7.663960188705831733e-01 1.003785716720091425e+00
-9.444980997092089492e-01 -7.666768810047882576e-01 1.005989993751491340e+00
-9.444980997092089492e-01 -7.652747652750793161e-01 1.005989993751491340e+00
-9.445002097216876891e-01 -7.638743560398814081e-01 1.005992241137103838e+00
-9.445039057486265266e-01 -7.624752208912369822e-01 1.005996177795227542e+00
-9.445054451720907851e-01 -7.610743369965544680e-01 1.005997817443419207e+00
-9.445070100016569326e-01 -7.596734689655986195e-01 1.005999484151786305e+00
-9.445046878177092431e-01 -7.582694757073020764e-01 1.005997010781203960e+00
-9.445070100016569326e-01 -7.568692110513661753e-01 1.005999484151786305e+00
-9.445070100016569326e-01 -7.554670820942498422e-01 1.005999484151786305e+00
-9.445062351006979773e-01 -7.540643344803645842e-01 1.005998658800617340e+00
-9.444988137136309803e-01 -7.526562926866264824e-01 1.005990754241432361e+00
-9.424223612825473051e-01 -7.496025660301796067e-01 1.003779113615776986e+00
-9.424086014282433421e-01 -7.481926075935491083e-01 1.003764457921128672e+00
-9.423994591464548432e-01 -7.467863491168099666e-01 1.003754720427742386e+00
-9.423875849951171002e-01 -7.453779570216019223e-01 1.003742073205441176e+00
-9.423875849951171002e-01 -7.439789743695344182e-01 1.003742073205441176e+00
-9.423843731797442169e-01 -7.425774608799740051e-01 1.003738652283654442e+00
-9.423797886965787907e-01 -7.411748773330743001e-01 1.003733769326036640e+00
-9.423767949726754578e-01 -7.397735561567262419e-01 1.003730580694644381e+00
-9.423682961516183232e-01 -7.383679304944936739e-01 1.003721528554735398e+00
-9.424011900361545235e-01 -7.369947007850103926e-01 1.003756564007648677e+00
-9.444995106937573714e-01 -7.372335520315532742e-01 1.005991496598704682e+00
-9.444980997092089492e-01 -7.358303349511938762e-01 1.005989993751491340e+00
-9.424202616543894129e-01 -7.328125220560789410e-01 1.003776877290560421e+00
-9.423976140806141766e-01 -7.313959140861614472e-01 1.003752755238215721e+00
-9.423516146151165174e-01 -7.299612845923149074e-01 1.003703760960701796e+00
-9.423365823025239285e-01 -7.285507333740319780e-01 1.003687749963902753e+00
-9.423398310807288292e-01 -7.271543333480364746e-01 1.003691210255000410e+00
-9.423475527806201013e-01 -7.257613685558588212e-01 1.003699434678985591e+00
-9.423452756960388754e-01 -7.243606949856622457e-01 1.003697009343980318e+00
-9.423398310807288292e-01 -7.229575980651504752e-01 1.003691210255000410e+00
-9.423278317365616497e-01 -7.215494982907687538e-01 1.003678429689144780e+00
-9.423278317365616497e-01 -7.201506043429387605e-01 1.003678429689144780e+00
-9.423398310807288292e-01 -7.187608627822645868e-01 1.003691210255000410e+00
-9.423430079154722083e-01 -7.173643694061510034e-01 1.003694593918730948e+00
-9.423375142744249144e-01 -7.159612790167129148e-01 1.003688742612175000e+00
-9.423341697943006245e-01 -7.145598346189718786e-01 1.003685180388449671e+00
-9.423235383373385066e-01 -7.131528853481775565e-01 1.003673856766595707e+00
-9.409742488099634983e-01 -7.107348550101271201e-01 1.002236721251309026e+00
-9.409799350497528581e-01 -7.093422569464467031e-01 1.002242777695818488e+00
-9.410242827024345447e-01 -7.079787288776361320e-01 1.002290012618639370e+00
-9.410891052201343365e-01 -7.066304429900750472e-01 1.002359055430049661e+00
-9.410603809841798784e-01 -7.052118625736595314e-01 1.002328461092213407e+00
-9.410432531804474587e-01 -7.038020403598005403e-01 1.002310218176557743e+00
-9.410016316910354561e-01 -7.023739866418088340e-01 1.002265886904862846e+00
-9.423272222566155820e-01 -7.019645290033781349e-01 1.003677780528783980e+00
-9.423563597440109962e-01 -7.005872979922673771e-01 1.003708815022947398e+00
-9.423742903451899355e-01 -6.992016654382489094e-01 1.003727913002470773e+00
-9.423940276963209683e-01 -6.978173174974879878e-01 1.003748935361062022e+00
-9.424122528125553622e-01 -6.964317934320247705e-01 1.003768347030151054e+00
-9.424122528125553622e-01 -6.950327741603654630e-01 1.003768347030151054e+00
-9.423755455961023708e-01 -6.936067376631727122e-01 1.003729249976952786e+00
-9.423662317789410769e-01 -6.922009315594894741e-01 1.003719329780320413e+00
-9.423602189720721167e-01 -6.907975729157395106e-01 1.003712925507462161e+00
-9.423653826277605949e-01 -6.894024084433545418e-01 1.003718425344841902e+00
-9.423849175005813983e-01 -6.880177207986274412e-01 1.003739232042698770e+00
-9.423811936561821145e-01 -6.866160289249436666e-01 1.003735265756048545e+00
-9.423289439394398892e-01 -6.851790643436953543e-01 1.003679614302398049e+00
-9.410457709383058811e-01 -6.828490626200265368e-01 1.002312899853962103e+00
-9.410830294876800783e-01 -6.814790524348577350e-01 1.002352584134813096e+00
-9.391034120593273471e-01 -6.786514182968164111e-01 1.000244082990139560e+00
-9.362200744756729032e-01 -6.751779218645679315e-01 9.971730246590988500e-01
-9.362200744756729032e-01 -6.737880949360693927e-01 9.971730246590988500e-01
-9.362200744756729032e-01 -6.723982680075708540e-01 9.971730246590988500e-01
-9.362437163443073640e-01 -6.710253856990919807e-01 9.971982057402331012e-01
-9.361576124223508488e-01 -6.695739390205240893e-01 9.971064959909623493e-01
-9.362437163443073640e-01 -6.682456616489713674e-01 9.971982057402331012e-01
-9.361576124223508488e-01 -6.667944706144612876e-01 9.971064959909623493e-01
-9.362200744756544735e-01 -6.654491333650652818e-01 9.971730246590791991e-01
-9.360750111895186354e-01 -6.639564132944446584e-01 9.970185169746718090e-01
-9.375960800323607236e-01 -6.636434352166911133e-01 9.986386155605528891e-01
-9.410990167895116887e-01 -6.647257923988535433e-01 1.002369612295774592e+00
-9.410032199459495983e-01 -6.632612007331797344e-01 1.002267578563693862e+00
-9.423375142744233601e-01 -6.628027627942907340e-01 1.003688742612173446e+00
-9.423493720568433263e-01 -6.614121771626388924e-01 1.003701372399852465e+00
-9.423351302624535242e-01 -6.600032764098903160e-01 1.003686203388232778e+00
-9.409861170780478012e-01 -6.576615372236281898e-01 1.002249362207325412e+00
-9.409928480780490601e-01 -6.562693294120232057e-01 1.002256531431542141e+00
-9.409836391091568331e-01 -6.548660083903520279e-01 1.002246722909363896e+00
-9.423260230564907136e-01 -6.544013327512403499e-01 1.003676503254296692e+00
-9.423214588211651366e-01 -6.529992786161804563e-01 1.003671641862761810e+00
-9.409721199719058848e-01 -6.506673476428342928e-01 1.002234453814471404e+00
-9.423235383373356200e-01 -6.502029445073203018e-01 1.003673856766592598e+00
-9.360833196979715387e-01 -6.445075716977507474e-01 9.970273664116046097e-01
-9.391266630962272766e-01 -6.452088180286561503e-01 1.000268847794296256e+00
-9.410193016823972245e-01 -6.451121673560104020e-01 1.002284707307471656e+00
-9.410193016823972245e-01 -6.437152159325456591e-01 1.002284707307471656e+00
-9.410193016823972245e-01 -6.423182645090809162e-01 1.002284707307471656e+00
-9.409991642397264044e-01 -6.409075976217827320e-01 1.002263258809234392e+00
-9.409991642397264044e-01 -6.395106760925286515e-01 1.002263258809234392e+00
-9.409991642397264044e-01 -6.381137545632745711e-01 1.002263258809234392e+00
-9.409991642397264044e-01 -6.367168330340203797e-01 1.002263258809234392e+00
-9.409991642397264044e-01 -6.353199115047664103e-01 1.002263258809234392e+00
-9.410193016823972245e-01 -6.339365559682925699e-01 1.002284707307471656e+00
-9.371588779520021451e-01 -6.299446833828136194e-01 9.981729492789336300e-01
-9.371626412726582478e-01 -6.285559868554969620e-01 9.981769576119566834e-01
-9.395780602536563109e-01 -7.721987790518622941e-01 1.002238024591407761e+00
-9.409252840242660065e-01 -7.719071150011955762e-01 1.003675094003366963e+00
-9.409282661120029756e-01 -7.705106676850915770e-01 1.003678274964959316e+00
-9.409346051562644808e-01 -7.691169554675415521e-01 1.003685036756732929e+00
-9.409537710236762775e-01 -7.677336899358867539e-01 1.003705480785714421e+00
-9.430954561407260961e-01 -7.680789967344969771e-01 1.005989993751491340e+00
-9.431012535577824041e-01 -7.666815939377129574e-01 1.005996177795227542e+00
-9.431012535577824041e-01 -7.652794695888877063e-01 1.005996177795227542e+00
-9.431027906950987250e-01 -7.638785902647804438e-01 1.005997817443419207e+00
-9.431043532007871155e-01 -7.624777268798312857e-01 1.005999484151786305e+00
-9.431059393711118677e-01 -7.610768779459957667e-01 1.006001176102971906e+00
-9.431043532007871155e-01 -7.596734689655986195e-01 1.005999484151786305e+00
-9.431043532007871155e-01 -7.582713400084823974e-01 1.005999484151786305e+00
-9.431020344654398313e-01 -7.568673501974881868e-01 1.005997010781203960e+00
-9.430997781151767567e-01 -7.554634172542301629e-01 1.005994603956134270e+00
-9.410228003260411311e-01 -7.524006345857232603e-01 1.003779113615776986e+00
-9.410090609060515199e-01 -7.509906352958434228e-01 1.003764457921128672e+00
-9.409999322011699530e-01 -7.495843496755091317e-01 1.003754720427742386e+00
-9.409913680592798535e-01 -7.481785400805868180e-01 1.003745585147755248e+00
-9.409880756837502025e-01 -7.467769396736695375e-01 1.003742073205441176e+00
-9.409848686381403482e-01 -7.453754166481727506e-01 1.003738652283654442e+00
-9.409802909632425383e-01 -7.439728194898621583e-01 1.003733769326036640e+00
-9.409802909632425383e-01 -7.425738484114681182e-01 1.003733769326036640e+00
-9.409833629761030771e-01 -7.411772970423676776e-01 1.003737046209811412e+00
-9.409833629761030771e-01 -7.397783213967611404e-01 1.003737046209811412e+00
-9.409802909632425383e-01 -7.383769351762866640e-01 1.003733769326036640e+00
-9.409817463177286845e-01 -7.369791039349290473e-01 1.003735321737344366e+00
-9.410053177247027500e-01 -7.355985568298891719e-01 1.003760465108993749e+00
-9.410016605203812556e-01 -7.341966950872692577e-01 1.003756564007648677e+00
-9.409896394167601708e-01 -7.327883308978597743e-01 1.003743741222979269e+00
-9.409896394167601708e-01 -7.313893459209643844e-01 1.003743741222979269e+00
-9.409929839675406082e-01 -7.299929555420634486e-01 1.003747308820083894e+00
-9.409521587221972849e-01 -7.285623553385927043e-01 1.003703760960701796e+00
-9.409322133071345018e-01 -7.271480123614231239e-01 1.003682485396448332e+00
-9.409284111628257730e-01 -7.257461801342590668e-01 1.003678429689144780e+00
-9.409284111628257730e-01 -7.243472861864290735e-01 1.003678429689144780e+00
-9.409284111628257730e-01 -7.229483922385989692e-01 1.003678429689144780e+00
-9.409347398081201463e-01 -7.215543514026346861e-01 1.003685180388449671e+00
-9.409371487336056772e-01 -7.201572917452988554e-01 1.003687749963902753e+00
-9.409536871434653893e-01 -7.187710180853655872e-01 1.003705391311576767e+00
-9.409658454025635610e-01 -7.173813558738586504e-01 1.003718360398549336e+00
-9.409595684947740235e-01 -7.159776301628140160e-01 1.003711664887096289e+00
-9.409481029197996893e-01 -7.145699827647122859e-01 1.003699434678985591e+00
-9.409300970209676374e-01 -7.131574123631391204e-01 1.003680227976275319e+00
-9.409227811824114607e-01 -7.117529819054759788e-01 1.003672424248311712e+00
-9.409337528523180616e-01 -7.103623794418315596e-01 1.003684127613086563e+00
-9.409417582495909205e-01 -7.089695093631347422e-01 1.003692666886073281e+00
-9.409504001682102992e-01 -7.075770941330650210e-01 1.003701885129678839e+00
-9.409327346561049410e-01 -7.061649096228742595e-01 1.003683041513906193e+00
-9.395758168040583280e-01 -7.037496671175150764e-01 1.002235631527341742e+00
-9.409565279576005414e-01 -7.033848948674127355e-01 1.003708421578105359e+00
-9.409777871455676790e-01 -7.020018192038748328e-01 1.003731098530084020e+00
-9.409826285699608439e-01 -7.006064565193691474e-01 1.003736262826511627e+00
-9.410060913273036176e-01 -6.992249162252760497e-01 1.003761290302743303e+00
-9.431022739655098297e-01 -6.993803819022125223e-01 1.005997266253407130e+00
-9.431100317352090201e-01 -6.979839974651386170e-01 1.006005541384668023e+00
-9.430991666638234294e-01 -6.965738351148168528e-01 1.005993951727413238e+00
-9.409777871455664577e-01 -6.936080150683154866e-01 1.003731098530082688e+00
-9.409644435867007273e-01 -6.921992318248073595e-01 1.003716865096327515e+00
-9.409585354175343808e-01 -6.907959468795936697e-01 1.003710562914481352e+00
-9.409781794375569053e-01 -6.894114004148210739e-01 1.003731516983818794e+00
-9.409527327136485431e-01 -6.879938266643987888e-01 1.003704373231339764e+00
-9.409366329143703522e-01 -6.865831488471092481e-01 1.003687199744955239e+00
-9.409341872525817108e-01 -6.851824617600598133e-01 1.003684590983274338e+00
-9.396194957510973778e-01 -6.828281635697937002e-01 1.002282223400277505e+00
-9.362964031770875106e-01 -6.790212411212759314e-01 9.987375155385262993e-01
-9.346279625084288334e-01 -6.764217269657856191e-01 9.969578074433277370e-01
-9.347445987672974299e-01 -6.751164401827691730e-01 9.970822221126662832e-01
-9.348297243346275209e-01 -6.737880949360693927e-01 9.971730246590988500e-01
-9.349803441189630249e-01 -6.725066048302867916e-01 9.973336891972596208e-01
-9.349168631607323032e-01 -6.710709881786564024e-01 9.972659747274698061e-01
-9.349168631607323032e-01 -6.696810316994130652e-01 9.972659747274698061e-01
-9.348533310934878937e-01 -6.682456616489713674e-01 9.971982057402331012e-01
-9.348533310934878937e-01 -6.668557996239111718e-01 9.971982057402331012e-01
-9.349168631607323032e-01 -6.655111622616832756e-01 9.972659747274698061e-01
-9.349168631607323032e-01 -6.641212057824399384e-01 9.972659747274698061e-01
-9.347445987673602685e-01 -6.626091368447220020e-01 9.970822221127332297e-01
-9.362964031770875106e-01 -6.623171515487967786e-01 9.987375155385262993e-01
-9.377400926533088210e-01 -6.619442344834115532e-01 1.000277483903029063e+00
-9.396528913549165862e-01 -6.618974682232051654e-01 1.002317846139268331e+00
-9.409253962964939655e-01 -6.613949393253225617e-01 1.003675213762970531e+00
-9.409499194942747557e-01 -6.600132512380141314e-01 1.003701372399852465e+00
-9.409444522712154813e-01 -6.586104985513565602e-01 1.003695540570576528e+00
-9.395802244775260936e-01 -6.562587229080892870e-01 1.002240333146223739e+00
-9.395886890413448489e-01 -6.548677329023757654e-01 1.002249362207330741e+00
-9.409220477116396752e-01 -6.543981631033616297e-01 1.003671641862761810e+00
-9.409253962964890805e-01 -6.530016025318504669e-01 1.003675213762965202e+00
-9.395747127218473382e-01 -6.506673476428342928e-01 1.002234453814471404e+00
-9.395982049649926893e-01 -6.492867000096156360e-01 1.002259512742898151e+00
-9.362036864299998484e-01 -6.455491301457771947e-01 9.986386155605697645e-01
-9.396218243643070789e-01 -6.465091187794751448e-01 1.002284707307471656e+00
-9.396218243643070789e-01 -6.451121673560104020e-01 1.002284707307471656e+00
-9.396218243643070789e-01 -6.437152159325456591e-01 1.002284707307471656e+00
-9.396017168271006970e-01 -6.423045191510368124e-01 1.002263258809234392e+00
-9.396017168271006970e-01 -6.409075976217827320e-01 1.002263258809234392e+00
-9.396017168271006970e-01 -6.395106760925286515e-01 1.002263258809234392e+00
-9.396017168271006970e-01 -6.381137545632745711e-01 1.002263258809234392e+00
-9.396017168271006970e-01 -6.367168330340203797e-01 1.002263258809234392e+00
-9.396017168271006970e-01 -6.353199115047664103e-01 1.002263258809234392e+00
-9.345878279367109132e-01 -6.305402594207683009e-01 9.969149963182302177e-01
-9.357708913561597619e-01 -6.299472130326893016e-01 9.981769576119566834e-01
-9.357708913561597619e-01 -6.285559868554969620e-01 9.981769576119566834e-01
-9.395271568302983045e-01 -7.733070650282418690e-01 1.003676470724426562e+00
-9.395300302288107641e-01 -7.719105345725271183e-01 1.003679540313694885e+00
-9.395258681014493352e-01 -7.705082257025345216e-01 1.003675094003366963e+00
-9.381798180439444579e-01 -7.680074405416700278e-01 1.002237137940773959e+00
-9.395230702989780802e-01 -7.677081609497599102e-01 1.003672105171708795e+00
-9.395455406092124706e-01 -7.663276034212402887e-01 1.003696109716450513e+00
-9.396171317794251854e-01 -7.649869706062447650e-01 1.003772589009818139e+00
-9.417016963999174095e-01 -7.652819847940638409e-01 1.005999484151786305e+00
-9.417032802111685585e-01 -7.638811405766000595e-01 1.006001176102971906e+00
-9.417056903211834529e-01 -7.624809606809594964e-01 1.006003750771193195e+00
-9.417016963999174095e-01 -7.610755979227150636e-01 1.005999484151786305e+00
-9.417016963999174095e-01 -7.596734689655986195e-01 1.005999484151786305e+00
-9.416971281187237475e-01 -7.582676615647506724e-01 1.005994603956134270e+00
-9.396294204408300876e-01 -7.552036710228929861e-01 1.003785716720091425e+00
-9.396095203838599197e-01 -7.537886629981379594e-01 1.003764457921128672e+00
-9.396004052558851738e-01 -7.523823502342082969e-01 1.003754720427742386e+00
-9.395918538512407769e-01 -7.509765151743811318e-01 1.003745585147755248e+00
-9.395885663723833048e-01 -7.495749049778046569e-01 1.003742073205441176e+00
-9.395885663723833048e-01 -7.481759223257371527e-01 1.003742073205441176e+00
-9.395807932299063969e-01 -7.467707616466497944e-01 1.003733769326036640e+00
-9.395764110772381050e-01 -7.453683141955963487e-01 1.003729087967448530e+00
-9.395838606738348142e-01 -7.439752483335809741e-01 1.003737046209811412e+00
-9.395838606738348142e-01 -7.425762726879743258e-01 1.003737046209811412e+00
-9.395807932299025111e-01 -7.411748773330710804e-01 1.003733769326032421e+00
-9.395807932299025111e-01 -7.397759062546772624e-01 1.003733769326032421e+00
-9.395735551383783690e-01 -7.383712470652933346e-01 1.003726037029948337e+00
-9.395642361041123269e-01 -7.369649772031553470e-01 1.003716081707896501e+00
-9.395707774060737538e-01 -7.355711518315326547e-01 1.003723069638813525e+00
-9.395885663723833048e-01 -7.341860958050613339e-01 1.003742073205441176e+00
-9.395968931843181604e-01 -7.327936072512597487e-01 1.003750968557911349e+00
-9.396004052558851738e-01 -7.313973460439645580e-01 1.003754720427742386e+00
-9.396057827696562281e-01 -7.300025236855005595e-01 1.003760465108993749e+00
-9.396294204408300876e-01 -7.286218448846289997e-01 1.003785716720091425e+00
-9.395848888971553015e-01 -7.271883363760327512e-01 1.003738144638468777e+00
-9.395317503022061478e-01 -7.257483118952505752e-01 1.003681377830771826e+00
-9.395289905890898963e-01 -7.243472861864290735e-01 1.003678429689144780e+00
-9.395317503022061478e-01 -7.229505157815449001e-01 1.003681377830771826e+00
-9.395353098219397792e-01 -7.215543514026346861e-01 1.003685180388449671e+00
-9.395486530589769458e-01 -7.201656756602838882e-01 1.003699434678983149e+00
-9.395542289773612943e-01 -7.187710180853655872e-01 1.003705391311576767e+00
-9.395509468907468076e-01 -7.173695806078208559e-01 1.003701885129678839e+00
-9.395381618011208191e-01 -7.159609112835022549e-01 1.003688227095911101e+00
-9.395311651513880147e-01 -7.145566824063056544e-01 1.003680752726852532e+00
-9.395225637144897224e-01 -7.131512562391040255e-01 1.003671563998494332e+00
-9.381879878843565335e-01 -7.107413397158127699e-01 1.002245865603972996e+00
-9.395330363641758442e-01 -7.103614056346007066e-01 1.003682751702862141e+00
-9.395757104105134649e-01 -7.089947070838592547e-01 1.003728339460393526e+00
-9.395707614278445696e-01 -7.075920164878639618e-01 1.003723052569617913e+00
-9.395266166769667970e-01 -7.061598806027854502e-01 1.003675893690345822e+00
-9.395413973870561097e-01 -7.047720775474709543e-01 1.003691683602142781e+00
-9.395970677002967175e-01 -7.034148418474973630e-01 1.003751154989543481e+00
-9.395975934248262940e-01 -7.020162393303250870e-01 1.003751716609648570e+00
-9.395877575959800110e-01 -7.006099090858937117e-01 1.003741209207162699e+00
-9.396323654380492885e-01 -6.992441233564596903e-01 1.003788862796704207e+00
-9.416996202570375729e-01 -6.993803819022125223e-01 1.005997266253407130e+00
-9.417090885273970979e-01 -6.979852738227780851e-01 1.006007381001138734e+00
-9.396195891626620833e-01 -6.950375291354816687e-01 1.003775214178996400e+00
-9.395700085146677649e-01 -6.936018992609701561e-01 1.003722248248811955e+00
-9.395612816301289749e-01 -6.921965149427052877e-01 1.003712925507462161e+00
-9.395484741665410811e-01 -6.907881564306896927e-01 1.003699243572076405e+00
-9.381850973377973135e-01 -6.883888621961578025e-01 1.002242777695818488e+00
-9.381912610046369005e-01 -6.869964825968183364e-01 1.002249362207330741e+00
-9.395226366021142139e-01 -6.865725063085290625e-01 1.003671641862761810e+00
-9.382975143443305077e-01 -6.842801665475340966e-01 1.002362870344068568e+00
-9.349205597388784428e-01 -6.804253939806831353e-01 9.987553430304021429e-01
-9.331343284183669651e-01 -6.777360207925928748e-01 9.968471508779613854e-01
-9.331343284183669651e-01 -6.763466480562406735e-01 9.968471508779613854e-01
-9.332589584793061777e-01 -6.750474230765325379e-01 9.969802904671689614e-01
-9.332947417650135913e-01 -6.736836943598718541e-01 9.970185169746718090e-01
-9.334393741935822497e-01 -6.723982680075708540e-01 9.971730246590988500e-01
-9.336749305159298684e-01 -6.711777721411795739e-01 9.974246643658938316e-01
-9.335263834201718014e-01 -6.696810316994130652e-01 9.972659747274698061e-01
-9.336131828396189158e-01 -6.683532130219299594e-01 9.973587006634242469e-01
-9.335263834201718014e-01 -6.669011187409265018e-01 9.972659747274698061e-01
-9.334629458426684234e-01 -6.654659375988508652e-01 9.971982057402331012e-01
-9.334629458426684234e-01 -6.640760755737906695e-01 9.971982057402331012e-01
-9.335263834201718014e-01 -6.627312493031967122e-01 9.972659747274698061e-01
-9.334393741935638200e-01 -6.612796525795698876e-01 9.971730246590791991e-01
-9.331651242933109991e-01 -6.596959461942304426e-01 9.968800494427896286e-01
-9.363329311635824048e-01 -6.605412745823009413e-01 1.000264148770175776e+00
-9.382878855712963873e-01 -6.605233620155817054e-01 1.002352584134813096e+00
-9.381912610046317935e-01 -6.590584393842561228e-01 1.002249362207325412e+00
-9.395504669317060742e-01 -6.586143253133892594e-01 1.003701372399852465e+00
-9.395362674373723966e-01 -6.572054668447785408e-01 1.003686203388232778e+00
-9.381912610046317935e-01 -6.548677329023723237e-01 1.002249362207325412e+00
-9.395226366021142139e-01 -6.543981631033616297e-01 1.003671641862761810e+00
-9.395300994885751322e-01 -6.530044655688790334e-01 1.003679614302398049e+00
-9.395259802066924237e-01 -6.516027130662723765e-01 1.003675213762965202e+00
-9.382023972449874405e-01 -6.492878311527111590e-01 1.002261258811203204e+00
-9.382243470462169332e-01 -6.479060702029398877e-01 1.002284707307471656e+00
-9.382243470462169332e-01 -6.465091187794751448e-01 1.002284707307471656e+00
-9.382243470462169332e-01 -6.451121673560104020e-01 1.002284707307471656e+00
-9.382042694144751005e-01 -6.437014406802910038e-01 1.002263258809234392e+00
-9.382042694144751005e-01 -6.423045191510368124e-01 1.002263258809234392e+00
-9.382042694144751005e-01 -6.409075976217827320e-01 1.002263258809234392e+00
-9.382042694144751005e-01 -6.395106760925286515e-01 1.002263258809234392e+00
-9.382042694144751005e-01 -6.381137545632745711e-01 1.002263258809234392e+00
-9.382042694144751005e-01 -6.367168330340203797e-01 1.002263258809234392e+00
-9.382042694144751005e-01 -6.353199115047664103e-01 1.002263258809234392e+00
-9.341616735288431617e-01 -6.311915011573235867e-01 9.979446413626191781e-01
-9.343753892965764862e-01 -6.299446833828136194e-01 9.981729492789336300e-01
-9.343791414396610540e-01 -6.285559868554969620e-01 9.981769576119566834e-01
-9.381294253959924223e-01 -7.733084551494529002e-01 1.003678274964959316e+00
-9.381346949523401424e-01 -7.719138973018730976e-01 1.003683912715019888e+00
-9.381416734431374804e-01 -7.705207273322235428e-01 1.003691378805961820e+00
-9.381483019628021891e-01 -7.691272496318440899e-01 1.003698470472636606e+00
-9.381527780871724564e-01 -7.677319907627528917e-01 1.003703259352150212e+00
-9.381585045515774546e-01 -7.663377398887062375e-01 1.003709385935284804e+00
-9.381609304351067324e-01 -7.649407807683469285e-01 1.003711981319812763e+00
-9.381725962613813863e-01 -7.635513345333815316e-01 1.003724462259088845e+00
-9.402937266504306502e-01 -7.638755397053205165e-01 1.005993799977557668e+00
-9.402967277609007857e-01 -7.624758522367434121e-01 1.005997010781203960e+00
-9.402944781222705162e-01 -7.610719058752711819e-01 1.005994603956134270e+00
-9.382298502776700300e-01 -7.580017579848155052e-01 1.003785716720091425e+00
-9.382099798616680975e-01 -7.565866907004324959e-01 1.003764457921128672e+00
-9.382008783106002836e-01 -7.551803507929075732e-01 1.003754720427742386e+00
-9.381923396432017004e-01 -7.537744902681753345e-01 1.003745585147755248e+00
-9.381890570610164071e-01 -7.523728702819398872e-01 1.003742073205441176e+00
-9.381890570610164071e-01 -7.509738876298722721e-01 1.003742073205441176e+00
-9.381812954965702556e-01 -7.495687038034375416e-01 1.003733769326036640e+00
-9.381812954965702556e-01 -7.481697327250437235e-01 1.003733769326036640e+00
-9.381843583715665513e-01 -7.467731996247940485e-01 1.003737046209811412e+00
-9.381843583715665513e-01 -7.453742239791876223e-01 1.003737046209811412e+00
-9.381812954965663698e-01 -7.439728194898589386e-01 1.003733769326032421e+00
-9.381812954965663698e-01 -7.425738484114651206e-01 1.003733769326032421e+00
-9.381740681861190367e-01 -7.411691676680416396e-01 1.003726037029948337e+00
-9.381673454422208014e-01 -7.397649063401136038e-01 1.003718844555417489e+00
-9.381586692721044507e-01 -7.383591276561880523e-01 1.003709562165141733e+00
-9.381506982228209335e-01 -7.369539287471316147e-01 1.003701034163804184e+00
-9.381484869115180869e-01 -7.355532695201379978e-01 1.003698668344063627e+00
-9.381622486120830828e-01 -7.341651166747796831e-01 1.003713391600268734e+00
-9.381973714702347422e-01 -7.327936072512597487e-01 1.003750968557911349e+00
-9.382196411007421855e-01 -7.314119730340168379e-01 1.003774794208964094e+00
-9.402915737020867137e-01 -7.316250807342421503e-01 1.005991496598704682e+00
-9.402952133261335277e-01 -7.302257894130221860e-01 1.005995390530060041e+00
-9.402937266504306502e-01 -7.288225138377856238e-01 1.005993799977557668e+00
-9.382213763183487876e-01 -7.258172023851724441e-01 1.003776650669455650e+00
-9.381519101380566550e-01 -7.243645354105980871e-01 1.003702330757813899e+00
-9.381396752302815223e-01 -7.229561795945448344e-01 1.003689240974253272e+00
-9.381514936132832050e-01 -7.215663605255732138e-01 1.003701885129678839e+00
-9.381547708112569772e-01 -7.201699496114173371e-01 1.003705391311576767e+00
-9.381460355515885974e-01 -7.187643255313430624e-01 1.003696045703051931e+00
-9.381338806481744896e-01 -7.173561126279911493e-01 1.003683041513906193e+00
-9.381277389879307815e-01 -7.159525251111689137e-01 1.003676470724426562e+00
-9.381264521786325528e-01 -7.145526537560904501e-01 1.003675094003366963e+00
-9.367801410800433715e-01 -7.121303130603815479e-01 1.002234713641747099e+00
-9.367847748835854693e-01 -7.107369469749696966e-01 1.002239671217769912e+00
-9.381448681875100837e-01 -7.103699305923033558e-01 1.003694796773071829e+00
-9.381850118508386904e-01 -7.090013510381069084e-01 1.003737745348896926e+00
-9.381596236543826572e-01 -7.075832260114403027e-01 1.003710583231886666e+00
-9.368019137656992124e-01 -7.051622933731188647e-01 1.002258007625486114e+00
-9.381586131851523680e-01 -7.047845893792861194e-01 1.003709502159289890e+00
-9.382048686443907881e-01 -7.034203322149719106e-01 1.003758989573584115e+00
-9.381930636067530305e-01 -7.020124927460650310e-01 1.003746359695987911e+00
-9.381882494892787028e-01 -7.006099090858937117e-01 1.003741209207162699e+00
-9.402925795132923703e-01 -7.007792382078500415e-01 1.005992572687811837e+00
-9.403015933655525238e-01 -6.993838232671713007e-01 1.006002216354711543e+00
-9.403022990532089453e-01 -6.979822143308092031e-01 1.006002971350078434e+00
-9.382048686443907881e-01 -6.950262948377049499e-01 1.003758989573584115e+00
-9.381640325394589031e-01 -6.935970979347927390e-01 1.003715300173971592e+00
-9.381363580552235515e-01 -6.921777337521388684e-01 1.003685692021998088e+00
-9.381265641169047598e-01 -6.907716181024652347e-01 1.003675213762974527e+00
-9.367832037630817732e-01 -6.883855739947741803e-01 1.002237990320151484e+00
-9.368845432227177472e-01 -6.870630048387271760e-01 1.002346410556506751e+00
-9.334700705781857621e-01 -6.831670600462365073e-01 9.986933623512099789e-01
-9.317444326404524801e-01 -6.805147662652971663e-01 9.968471508779613854e-01
-9.317444326404524801e-01 -6.791253935289449650e-01 9.968471508779613854e-01
-9.318688770659584453e-01 -6.778265396803881959e-01 9.969802904671689614e-01
-9.318142687044129735e-01 -6.763973415577185788e-01 9.969218665177320693e-01
-9.334700705781857621e-01 -6.762073304206636104e-01 9.986933623512099789e-01
-9.317943726659292381e-01 -6.736040047560171162e-01 9.969005803059968196e-01
-9.319265711839300748e-01 -6.723099281299045327e-01 9.970420157805786054e-01
-9.319868402803381802e-01 -6.709636732235554346e-01 9.971064959909623493e-01
-9.322225738120489824e-01 -6.697432987395296466e-01 9.973587006634242469e-01
-9.322842295157125481e-01 -6.683974168299070540e-01 9.974246643658938316e-01
-9.322225738120489824e-01 -6.669631273043302722e-01 9.973587006634242469e-01
-9.322225738120489824e-01 -6.655730415867305849e-01 9.973587006634242469e-01
-9.322225738120489824e-01 -6.641829558691308977e-01 9.973587006634242469e-01
-9.320725605918489531e-01 -6.626862135487303629e-01 9.971982057402331012e-01
-9.322225738120489824e-01 -6.614027844339315232e-01 9.973587006634242469e-01
-9.321359036796111885e-01 -6.599513363447101488e-01 9.972659747274698061e-01
-9.318478623775234837e-01 -6.583578764100025404e-01 9.969578074433277370e-01
-9.349475167810462617e-01 -6.591536577112694362e-01 1.000274040470984893e+00
-9.368318285567258652e-01 -6.590851702535017731e-01 1.002290012618657356e+00
-9.381478295690296454e-01 -6.586120894740177256e-01 1.003697965071831621e+00
-9.381455634086214301e-01 -6.572115807549433475e-01 1.003695540570576528e+00
-9.367938329679238452e-01 -6.548677329023723237e-01 1.002249362207325412e+00
-9.367913660388896835e-01 -6.534691099082923227e-01 1.002246722909366561e+00
-9.381306772631425872e-01 -6.530044655688790334e-01 1.003679614302398049e+00
-9.367953122691690115e-01 -6.506780539115986084e-01 1.002250944870102689e+00
-9.368268697281266766e-01 -6.493030216264045196e-01 1.002284707307471656e+00
-9.368268697281266766e-01 -6.479060702029398877e-01 1.002284707307471656e+00
-9.368068220018495040e-01 -6.464952837387991647e-01 1.002263258809234392e+00
-9.368068220018495040e-01 -6.450983622095450842e-01 1.002263258809234392e+00
-9.368068220018495040e-01 -6.437014406802910038e-01 1.002263258809234392e+00
-9.368068220018495040e-01 -6.423045191510368124e-01 1.002263258809234392e+00
-9.368068220018495040e-01 -6.409075976217827320e-01 1.002263258809234392e+00
-9.368068220018495040e-01 -6.395106760925286515e-01 1.002263258809234392e+00
-9.368068220018495040e-01 -6.381137545632745711e-01 1.002263258809234392e+00
-9.367905196684179758e-01 -6.367057528733408578e-01 1.002245817401414385e+00
-9.368068220018495040e-01 -6.353199115047664103e-01 1.002263258809234392e+00
-9.329736314460638225e-01 -6.313291279740838036e-01 9.981622360926525328e-01
-9.329836449688636568e-01 -6.299446833828136194e-01 9.981729492789336300e-01
-9.329873915231624570e-01 -6.285559868554969620e-01 9.981769576119566834e-01
-9.367648761877221952e-01 -7.733372426920593901e-01 1.003715638362335127e+00
-9.367520869234439163e-01 -7.719277579289955948e-01 1.003701935046929616e+00
-9.367677104653212572e-01 -7.705416824212848459e-01 1.003718675206288102e+00
