-8.585914409229773447e-01 -5.801576158742182132e-01 1.030835775724205483e+00
-8.585914409229773447e-01 -5.787208709116767880e-01 1.030835775724205483e+00
-8.585888526211610250e-01 -5.772823856737488990e-01 1.030832668176210554e+00
-8.585888526211610250e-01 -5.758456450424055406e-01 1.030832668176210554e+00
-8.585888526211610250e-01 -5.744089044110621822e-01 1.030832668176210554e+00
-8.585826402939615853e-01 -5.729680180345851914e-01 1.030825209577367785e+00
-8.574456318954540857e-01 -5.707744172964778206e-01 1.029460102870479954e+00
-8.574663803536678452e-01 -5.693533665734276106e-01 1.029485013732618137e+00
-8.574632212236119599e-01 -5.679164118984038057e-01 1.029481220840997580e+00
-8.574535186932928932e-01 -5.664751449104274972e-01 1.029469571860013977e+00
-8.574535186932928932e-01 -5.650403041178477803e-01 1.029469571860013977e+00
-8.574535186932928932e-01 -5.636054633252681745e-01 1.029469571860013977e+00
-8.574496916445212280e-01 -5.621681134119683731e-01 1.029464977056710362e+00
-8.585826402939615853e-01 -5.614741761482344717e-01 1.030825209577367785e+00
-8.585888526211610250e-01 -5.600414980976289314e-01 1.030832668176210554e+00
-8.585862112247104605e-01 -5.586030389526814854e-01 1.030829496882124330e+00
-8.574439157575933779e-01 -5.564250276850974952e-01 1.029458042453594180e+00
-8.574439157575933779e-01 -5.549902029618249966e-01 1.029458042453594180e+00
-8.574535186932928932e-01 -5.535615777772110446e-01 1.029469571860013977e+00
-8.574942891119278210e-01 -5.521529896475637633e-01 1.029518521341824533e+00
-8.586714026305188874e-01 -5.514740713188795995e-01 1.030931778764642370e+00
-8.587098030021537154e-01 -5.500617905894111814e-01 1.030977882737959206e+00
-8.587491140896547082e-01 -5.486499631947706623e-01 1.031025080128297855e+00
-8.607419223945730336e-01 -5.484828136524069198e-01 1.033417671059162268e+00
-8.607324663109925389e-01 -5.470364603378566892e-01 1.033406317965259280e+00
-8.607457959742100817e-01 -5.456045819682379117e-01 1.033422321728013182e+00
-8.607634377534639780e-01 -5.441753851110481266e-01 1.033443502671982150e+00
-8.619403967579978287e-01 -5.434771105856237572e-01 1.034856574583262745e+00
-8.620038408123532614e-01 -5.420746586203952777e-01 1.034932746319747965e+00
-8.640181468367311712e-01 -5.418955373703142619e-01 1.037351147685307229e+00
-8.640257584603123764e-01 -5.404544726234455920e-01 1.037360286297136946e+00
-8.640381540814247030e-01 -5.390163668226392035e-01 1.037375168637090228e+00
-8.537585286844574517e-01 -5.311749294327228199e-01 1.025033319982221691e+00
-8.472947006339608400e-01 -5.257355489252589775e-01 1.017272766027224495e+00
-8.408045858631811864e-01 -5.203015346399965102e-01 1.009480651902392445e+00
-8.345730596297505910e-01 -5.150488265954715761e-01 1.001999002455854049e+00
-8.315179902379677968e-01 -5.117719786329301135e-01 9.983310473886751746e-01
-8.395053422513177876e-01 -5.152831243610709322e-01 1.007920763540297804e+00
-8.394972825724753562e-01 -5.138733840944386122e-01 1.007911086987637539e+00
-8.394913715534645382e-01 -5.124649824444579282e-01 1.007903990143228290e+00
-8.394832969518156718e-01 -5.110552834451441706e-01 1.007894295674057528e+00
-8.394913715534638721e-01 -5.096554156547401515e-01 1.007903990143227624e+00
-8.394972825724753562e-01 -5.082542109496114291e-01 1.007911086987637539e+00
-8.395112393539748696e-01 -5.068578441190018102e-01 1.007927843676556190e+00
-8.344601222893264225e-01 -5.024118503109826772e-01 1.001863408452262183e+00
-8.362396313294239159e-01 -5.020839153109311059e-01 1.003999909579952332e+00
-8.395597679066036934e-01 -5.026724498595149804e-01 1.007986107672456333e+00
-8.345738889926743731e-01 -4.982906831654985713e-01 1.001999998199501141e+00
-8.293319336157851662e-01 -4.937731384557972891e-01 9.957064400766314494e-01
-8.394951097061150724e-01 -4.984193678866207788e-01 1.007908478216721360e+00
-8.394811230871541685e-01 -4.970062976003180033e-01 1.007891685704568108e+00
-8.394811230871541685e-01 -4.956015313549807511e-01 1.007891685704568108e+00
-8.394730232424478800e-01 -4.941919967867573482e-01 1.007881960928262322e+00
-8.394730232424478800e-01 -4.927872440954930711e-01 1.007881960928262322e+00
-8.394789265428794778e-01 -4.913859468797394658e-01 1.007889048505647533e+00
-8.394730232424478800e-01 -4.899777387129645723e-01 1.007881960928262322e+00
-8.741161329880478004e-01 -8.099494568789766813e-01 1.051234689438365066e+00
-8.741022509657073725e-01 -8.084714408730877544e-01 1.051217994558939939e+00
-8.752313043976814866e-01 -8.080486752978983667e-01 1.052575823443602454e+00
-8.752291284629727386e-01 -8.065796245096518158e-01 1.052573206608194090e+00
-8.752271775878334159e-01 -8.051107880454718702e-01 1.052570860435249944e+00
-8.752268740293484006e-01 -8.036434707065942540e-01 1.052570495367957770e+00
-8.752268740293484006e-01 -8.021764326074584117e-01 1.052570495367957770e+00
-8.752266101645919116e-01 -8.007091531092114245e-01 1.052570178037371074e+00
-8.752266101645919116e-01 -7.992421154523606797e-01 1.052570178037371074e+00
-8.752268740293484006e-01 -7.977753183100509959e-01 1.052570495367957770e+00
-8.752268740293484006e-01 -7.963082802109151537e-01 1.052570495367957770e+00
-8.752266101645919116e-01 -7.948410024818078901e-01 1.052570178037371074e+00
-8.752261414883644175e-01 -7.933735399801082888e-01 1.052569614395207465e+00
-8.752260281351331717e-01 -7.919064005465948908e-01 1.052569478073677178e+00
-8.752259416572615303e-01 -7.904392857649178428e-01 1.052569374073150099e+00
-8.752259416572611972e-01 -7.889722492286055378e-01 1.052569374073149877e+00
-8.752262872119069836e-01 -7.875055236132475489e-01 1.052569789646111920e+00
-8.752276547542569007e-01 -7.860397146840049087e-01 1.052571434287943086e+00
-8.752302176915927046e-01 -7.845749727477440150e-01 1.052574516542728933e+00
-8.752306660817179562e-01 -7.831083302388845979e-01 1.052575055788300906e+00
-8.752306660817179562e-01 -7.816412857835851602e-01 1.052575055788300906e+00
-8.752302176915927046e-01 -7.801738416365936457e-01 1.052574516542728933e+00
-8.752290896668388775e-01 -7.787057943105996083e-01 1.052573159950959125e+00
-8.752297587582372751e-01 -7.772393466778196869e-01 1.052573964617595559e+00
-8.752308657085624555e-01 -7.757732849044705059e-01 1.052575295864711658e+00
-8.752308657085624555e-01 -7.743062401145603957e-01 1.052575295864711658e+00
-8.752308657085624555e-01 -7.728391953246501744e-01 1.052575295864711658e+00
-8.752290896668415421e-01 -7.713705852458827561e-01 1.052573159950962456e+00
-8.752290896668415421e-01 -7.699035434329389860e-01 1.052573159950962456e+00
-8.752280376692553876e-01 -7.684355779837100942e-01 1.052571894791432650e+00
-8.752280376692553876e-01 -7.669685379341040221e-01 1.052571894791432650e+00
-8.740970282851898698e-01 -7.645122821140236669e-01 1.051211713628152022e+00
-8.692582506943228315e-01 -7.588231040408236483e-01 1.045392474437807584e+00
-8.560560602551242626e-01 -7.458632850549574700e-01 1.029515178455619351e+00
-8.380158887887428909e-01 -7.287406047961185740e-01 1.007819601251193520e+00
-8.378981382608475803e-01 -7.272337402524611250e-01 1.007677991418184371e+00
-8.379652552456914316e-01 -7.258874119360722021e-01 1.007758708041588847e+00
-8.379854512515791942e-01 -7.245002919688058318e-01 1.007782996281075816e+00
-8.379936160803601597e-01 -7.231027226227819682e-01 1.007792815515527574e+00
-8.380137253213794102e-01 -7.217154126895767297e-01 1.007816999409337555e+00
-8.380137253213794102e-01 -7.203107505395386356e-01 1.007816999409337555e+00
-8.380278185569209892e-01 -7.189181785409262115e-01 1.007833948299225790e+00
-8.380537346491847561e-01 -7.175356819430336319e-01 1.007865115662662125e+00
-8.380537346491847561e-01 -7.161309527301459310e-01 1.007865115662662125e+00
-8.380677417197023304e-01 -7.147381693152419224e-01 1.007881960928262322e+00
-8.380677417197023304e-01 -7.133334166239777563e-01 1.007881960928262322e+00
-8.381543411729099891e-01 -7.120022291470157194e-01 1.007986107672456333e+00
-8.348397626192844978e-01 -7.077871917357823062e-01 1.003999909700650672e+00
-8.380897912105326197e-01 -7.091378154147862656e-01 1.007908478216721360e+00
-8.331768086421501573e-01 -7.035842101423156469e-01 1.001999998199501141e+00
-8.279436283215525494e-01 -6.977772175817169575e-01 9.957064400766314494e-01
-8.380839009055844890e-01 -7.049184920856965686e-01 1.007901394383510674e+00
-8.380699237702435855e-01 -7.035019794662700221e-01 1.007884585118729026e+00
-8.380839009055848221e-01 -7.021089325317483310e-01 1.007901394383511118e+00
-8.380897912105326197e-01 -7.007090775136597394e-01 1.007908478216721360e+00
-8.348397626192844978e-01 -6.965924556071023677e-01 1.003999909700650672e+00
-8.539798389068442575e-01 -7.111315604936553347e-01 1.027018260915837145e+00
-8.605285787722061208e-01 -7.151424679883762181e-01 1.034893945002622440e+00
-8.572869166525177720e-01 -7.110115164634011053e-01 1.030995438221829152e+00
-8.560467052865263771e-01 -7.085480286711163256e-01 1.029503927928214990e+00
-8.560174458696149236e-01 -7.070889710813872409e-01 1.029468739796010057e+00
-8.560095335651644044e-01 -7.056476089759239345e-01 1.029459224253855165e+00
-8.571483191510135269e-01 -7.051496265713135259e-01 1.030828757278700269e+00
-8.590708636255313113e-01 -7.052912872189264215e-01 1.033140859031921988e+00
-8.620429868156860298e-01 -7.062864404478667035e-01 1.036715211318607777e+00
-8.681086310389165561e-01 -7.098010190010122233e-01 1.044009912080455793e+00
-8.711537171865126883e-01 -7.108305948630618820e-01 1.047672011508524514e+00
-8.692582506943228315e-01 -7.078269276939941346e-01 1.045392474437807584e+00
-8.651094679705194634e-01 -7.029985424623427237e-01 1.040403040936224599e+00
-8.620681015977283979e-01 -6.990821092988280805e-01 1.036745415005628779e+00
-8.650804716747940715e-01 -7.000749179200119743e-01 1.040368169240369234e+00
-8.692600826214149645e-01 -7.020002726888133759e-01 1.045394677560750996e+00
-8.722698397464809794e-01 -7.029688219038383590e-01 1.049014289391776211e+00
-8.741551874300138580e-01 -7.030229960176461734e-01 1.051281657321260665e+00
-8.741551874300138580e-01 -7.015577542585431647e-01 1.051281657321260665e+00
-8.741351787295460474e-01 -7.000764879518727168e-01 1.051257594340120782e+00
-8.741224424888460742e-01 -6.986011008917706322e-01 1.051242277407356651e+00
-8.741274377848111676e-01 -6.971398979005847263e-01 1.051248284879595651e+00
-8.741465906593339774e-01 -6.956899454784356562e-01 1.051271318622299944e+00
-8.722705488059387946e-01 -6.927348139862320453e-01 1.049015142125035549e+00
-8.722702112748683678e-01 -6.912724637286575824e-01 1.049014736201432596e+00
-8.722698397464809794e-01 -6.898100877167864242e-01 1.049014289391776211e+00
-8.711387734249899095e-01 -6.874554299997461815e-01 1.047654039754073896e+00
-8.650661168138862323e-01 -6.812132122205322160e-01 1.040350905713042895e+00
-8.590755197710241431e-01 -6.750558340401981994e-01 1.033146458633023679e+00
-8.560189780213131039e-01 -6.712191816459417426e-01 1.029470582401304624e+00
-8.560560602551242626e-01 -6.698133541047597284e-01 1.029515178455619351e+00
-8.572787546863230856e-01 -6.693330865360608284e-01 1.030985622429997806e+00
-8.593320412363257832e-01 -6.694958249326361521e-01 1.033454957987667511e+00
-8.625917504219147158e-01 -6.705895679515559982e-01 1.037375168637090228e+00
-8.442495524083739600e-01 -6.549150002939828630e-01 1.015316366488606015e+00
-8.523293331629474556e-01 -6.597541216030968769e-01 1.025033319982221691e+00
-8.605816441044473741e-01 -6.646994161131046797e-01 1.034957762744857623e+00
-8.593167352729667030e-01 -6.622820510456480791e-01 1.033436550639912133e+00
-8.572787546863230856e-01 -6.592744098384386575e-01 1.030985622429997806e+00
-8.572513038453509759e-01 -6.578163914742607421e-01 1.030952609338035453e+00
-8.573065617695468932e-01 -6.564217935154965655e-01 1.031019063948114045e+00
-8.593025461097758555e-01 -6.565097311343311981e-01 1.033419486384949515e+00
-8.593063825414019030e-01 -6.550723096956989622e-01 1.033424100176935312e+00
-8.592931563547260287e-01 -6.536218967042861649e-01 1.033408194022457760e+00
-8.572869166525177720e-01 -6.506588816787146623e-01 1.030995438221829152e+00
-8.572292875939997447e-01 -6.491782717964945659e-01 1.030926132024234221e+00
-8.572401978951730284e-01 -6.477496449630834041e-01 1.030939253034856007e+00
-8.572401978951730284e-01 -6.463127557772734288e-01 1.030939253034856007e+00
-8.572292875939997447e-01 -6.448676591019628646e-01 1.030926132024234221e+00
-8.572292875940008550e-01 -6.434307882037864079e-01 1.030926132024235553e+00
-8.572216457654143751e-01 -6.419881942073194514e-01 1.030916941763356354e+00
-8.572292875940008550e-01 -6.405570464074318293e-01 1.030926132024235553e+00
-8.572216457654143751e-01 -6.391144780291309058e-01 1.030916941763356354e+00
-8.572216457654143751e-01 -6.376776199400366885e-01 1.030916941763356354e+00
-8.572323917791678793e-01 -6.362487376784441429e-01 1.030929865197674378e+00
-8.572323917791678793e-01 -6.348118615770926843e-01 1.030929865197674378e+00
-8.572323917791678793e-01 -6.333749854757412256e-01 1.030929865197674378e+00
-8.572141649029074717e-01 -6.319246728105893940e-01 1.030907945084451383e+00
-8.572141649029074717e-01 -6.304878272607699063e-01 1.030907945084451383e+00
-8.572247135598425327e-01 -6.290587226504640306e-01 1.030920631172350443e+00
-8.572247135598425327e-01 -6.276218594191930178e-01 1.030920631172350443e+00
-8.572323917791678793e-01 -6.261906049689837106e-01 1.030929865197674378e+00
-8.572323917791678793e-01 -6.247537288676322520e-01 1.030929865197674378e+00
-8.572323917791678793e-01 -6.233168527662807934e-01 1.030929865197674378e+00
-8.572593138964300641e-01 -6.218995073380759742e-01 1.030962242432816200e+00
-8.572706307907927981e-01 -6.204707769920031479e-01 1.030975852422932881e+00
-8.572869166525162177e-01 -6.190455967914968438e-01 1.030995438221827376e+00
-8.573065617695468932e-01 -6.176227820774089494e-01 1.031019063948114045e+00
-8.592947242809995112e-01 -6.176147657836135174e-01 1.033410079651182478e+00
-8.593040618994299829e-01 -6.161811285666874971e-01 1.033421309312826164e+00
-8.593130751265944944e-01 -6.147472279792028926e-01 1.033432148853136168e+00
-8.572869166525177720e-01 -6.118607593171304648e-01 1.030995438221829152e+00
-8.560541312511273926e-01 -6.095459975568806588e-01 1.029512858585477364e+00
-8.560574464898788039e-01 -6.081134514630520682e-01 1.029516845577420181e+00
-8.592931563547260287e-01 -6.089716569558665249e-01 1.033408194022457760e+00
-8.609670170488004093e-01 -6.087147677063782236e-01 1.035421222223737114e+00
-8.605450544578682193e-01 -6.069740059995046844e-01 1.034913759088699425e+00
-8.571610339567919956e-01 -6.031503756652280002e-01 1.030844048433272597e+00
-8.741257337253046655e-01 -6.136225726730201169e-01 1.051246235533520812e+00
-8.752284872646499680e-01 -6.129296475807780586e-01 1.052572435486492708e+00
-8.752259467397305315e-01 -6.114608318856264990e-01 1.052569380185458980e+00
-8.752264149587601905e-01 -6.099941216687612133e-01 1.052569943277784636e+00
-8.752260315908312327e-01 -6.085268177912047660e-01 1.052569482229589237e+00
-8.752259618364222060e-01 -6.070597327222502226e-01 1.052569398341131279e+00
-8.752269037003186369e-01 -6.055933478534134551e-01 1.052570531051034708e+00
-8.752318114024458806e-01 -6.041296972512046892e-01 1.052576433180656634e+00
-8.741309630503772965e-01 -6.019046343399193644e-01 1.051252524455222659e+00
-8.722678701403124846e-01 -5.991596770638208946e-01 1.049011920692411559e+00
-8.681472160696496188e-01 -5.948740337720189730e-01 1.044056315437251081e+00
-8.650709440624183566e-01 -5.913160879485348520e-01 1.040356711087088826e+00
-8.651130650017548884e-01 -5.898947940319050343e-01 1.040407366819103396e+00
-8.632143769179375647e-01 -5.871532322751257249e-01 1.038123955378899010e+00
-8.601935656406156649e-01 -5.836566550329902459e-01 1.034491049538216245e+00
-8.590230166609791329e-01 -5.814225391902638762e-01 1.033083317033755666e+00
-8.590403889065201248e-01 -5.799943908186282471e-01 1.033104209345951929e+00
-8.590403889065201248e-01 -5.785544841879961542e-01 1.033104209345951929e+00
-8.590552701981732930e-01 -5.771245750038830336e-01 1.033122105972520188e+00
-8.590726957130507824e-01 -5.756963209101998435e-01 1.033143062347799512e+00
-8.571594687133620161e-01 -5.729774430132752450e-01 1.030842166031004981e+00
-8.571478777103798130e-01 -5.715329604424470578e-01 1.030828226390766655e+00
-8.560231500062512877e-01 -5.693481601942813608e-01 1.029475599738389757e+00
-8.560309778722012819e-01 -5.679185042584744547e-01 1.029485013732618137e+00
-8.560380666051222720e-01 -5.664883329551150259e-01 1.029493538826332211e+00
-8.560340086330591181e-01 -5.650507801726701862e-01 1.029488658604081897e+00
-8.560340086330591181e-01 -5.636159127776151356e-01 1.029488658604081897e+00
-8.560265147440025979e-01 -5.621761239397888854e-01 1.029479646259111147e+00
-8.560143171000269557e-01 -5.607332790234743625e-01 1.029464977056710362e+00
-8.560041007195356988e-01 -5.592917695063003292e-01 1.029452690573064100e+00
-8.560143171000269557e-01 -5.578636102464862301e-01 1.029464977056710362e+00
-8.560340086330591181e-01 -5.564415758023399938e-01 1.029488658604081897e+00
-8.560611332221553793e-01 -5.550242945414332052e-01 1.029521279337092921e+00
-8.560555694330626020e-01 -5.535857837430459005e-01 1.029514588180302281e+00
-8.560555694330626020e-01 -5.521508802082012446e-01 1.029514588180302281e+00
-8.560555694330626020e-01 -5.507159766733566997e-01 1.029514588180302281e+00
-8.560611332221553793e-01 -5.492846430983987505e-01 1.029521279337092921e+00
-8.572156728900794942e-01 -5.485885959810714585e-01 1.030909758628861139e+00
-8.572529531524951674e-01 -5.471755435029835857e-01 1.030954592837501904e+00
-8.572918931313038282e-01 -5.457634226455413406e-01 1.031001423064041633e+00
-8.593225159834496640e-01 -5.456157646375463521e-01 1.033443502671982150e+00
-8.605220633463196434e-01 -5.449350116028567337e-01 1.034886109382789021e+00
-8.605760297040200291e-01 -5.435267057477364272e-01 1.034951010721565812e+00
-8.625793755511266259e-01 -5.433461498445447679e-01 1.037360286297136946e+00
-8.625846946431687812e-01 -5.419036528599542324e-01 1.037366683174919979e+00
-8.576856553533859229e-01 -5.373882817967210457e-01 1.031474971705488075e+00
-8.523293331629474556e-01 -5.326035871235047514e-01 1.025033319982221691e+00
-8.523293331629474556e-01 -5.311749294327228199e-01 1.025033319982221691e+00
-8.576856553533859229e-01 -5.330753742381598714e-01 1.031474971705488075e+00
-8.625846946431687812e-01 -5.346744152284179652e-01 1.037366683174919979e+00
-8.605760297040200291e-01 -5.319868606150881529e-01 1.034951010721565812e+00
-8.604975047534478838e-01 -5.304959694092156175e-01 1.034856574583262745e+00
-8.604711814456218466e-01 -5.290374362156582411e-01 1.034824917491849794e+00
-8.593340909143200035e-01 -5.268979279246220893e-01 1.033457422983482532e+00
-8.593225159834496640e-01 -5.254504512665705285e-01 1.033443502671982150e+00
-8.593153110829162555e-01 -5.240056782319595374e-01 1.033434837872090117e+00
-8.593153110829171437e-01 -5.225653107821746080e-01 1.033434837872091228e+00
-8.593153110829171437e-01 -5.211249433323891234e-01 1.033434837872091228e+00
-8.593153110829162555e-01 -5.196845758826030837e-01 1.033434837872090117e+00
-8.593238722779525940e-01 -5.182493716013165663e-01 1.033445133786861314e+00
-8.593320412363261163e-01 -5.168139027233863425e-01 1.033454957987667955e+00
-8.593353453722734070e-01 -5.153754888445296611e-01 1.033458931627091015e+00
-8.605816441044473741e-01 -5.146804506709108384e-01 1.034957762744857623e+00
-8.560616911970871934e-01 -5.105423286257807503e-01 1.029521950372189965e+00
-8.442799651605945588e-01 -5.021007187629292767e-01 1.015352941651709529e+00
-8.331768086421501573e-01 -4.941010193496452318e-01 1.001999998199501141e+00
-8.339375798769601555e-01 -4.931543517073102567e-01 1.002914921380275048e+00
-8.301543451000199525e-01 -4.895256230771312111e-01 9.983651053023882005e-01
-8.279436283215525494e-01 -4.868342241998135922e-01 9.957064400766314494e-01
-8.279436283215525494e-01 -4.854464413486168639e-01 9.957064400766314494e-01
-8.302033680215140654e-01 -4.853798191782919269e-01 9.984240615368146221e-01
-8.726840863649488744e-01 -8.099807180939616602e-01 1.051275263419058748e+00
-8.726699791099825632e-01 -8.085024153002274838e-01 1.051258269172901993e+00
-8.726381668577133377e-01 -8.070077864591436168e-01 1.051219946675211458e+00
-8.737641828876857586e-01 -8.065820694484409081e-01 1.052576397213291104e+00
-8.737608941810544039e-01 -8.051119928011762905e-01 1.052572435486494262e+00
-8.737591591950397696e-01 -8.036433562378892947e-01 1.052570345442791044e+00
-8.737589137075600920e-01 -8.021760929718307898e-01 1.052570049717317380e+00
-8.737589137075600920e-01 -8.007090554938280924e-01 1.052570049717317380e+00
-8.737589137075600920e-01 -7.992420180158253951e-01 1.052570049717317380e+00
-8.737592836508428773e-01 -7.977753183100509959e-01 1.052570495367957770e+00
-8.737597367377007984e-01 -7.963086931356455622e-01 1.052571041177161160e+00
-8.737597367377007984e-01 -7.948416542757789083e-01 1.052571041177161160e+00
-8.737590202285376861e-01 -7.933739648249571452e-01 1.052570178037371074e+00
-8.737587984483768944e-01 -7.919067261638915722e-01 1.052569910870820635e+00
-8.737586199459790315e-01 -7.904395273984826664e-01 1.052569695838647679e+00
-8.737588959967315105e-01 -7.889727396775683133e-01 1.052570028382041167e+00
-8.737590036455319398e-01 -7.875057992515406280e-01 1.052570158060721850e+00
-8.737597129522473027e-01 -7.860393997190442406e-01 1.052571012524113225e+00
-8.737610544486765773e-01 -7.845735654648594570e-01 1.052572628552220335e+00
-8.737621635425856237e-01 -7.831075184156666147e-01 1.052573964617595559e+00
-8.737626217063964029e-01 -7.816408853403103985e-01 1.052574516542728933e+00
-8.737626217063964029e-01 -7.801738416365936457e-01 1.052574516542728933e+00
-8.737632686367637902e-01 -7.787073744842907264e-01 1.052575295864711658e+00
-8.737641596466267924e-01 -7.772411222761066441e-01 1.052576369216045915e+00
-8.737641596466267924e-01 -7.757740759901948779e-01 1.052576369216045915e+00
-8.726254414883671817e-01 -7.732979273451876523e-01 1.051204617111832773e+00
-8.726254414883671817e-01 -7.718327929621918715e-01 1.051204617111832773e+00
-8.726254414883671817e-01 -7.703676585791960907e-01 1.051204617111832773e+00
-8.737643825312593204e-01 -7.699060872384337895e-01 1.052576637713093621e+00
-8.737630693446558627e-01 -7.684378856858894435e-01 1.052575055788300906e+00
-8.737606638071095944e-01 -7.669687297003362492e-01 1.052572157967477606e+00
-8.737628665168590825e-01 -7.655036190778641281e-01 1.052574811452636983e+00
-8.726699791099825632e-01 -7.630809312945968648e-01 1.051258269172901993e+00
-8.636155641086632473e-01 -7.537135540915979037e-01 1.040350905713042895e+00
-8.546229394690849634e-01 -7.444304048333629797e-01 1.029517977756055025e+00
-8.366166553081409996e-01 -7.273411214998600771e-01 1.007826782259018339e+00
-8.365399134162099237e-01 -7.258698563923122737e-01 1.007734335457345809e+00
-8.365743168385897377e-01 -7.244951037146081241e-01 1.007775779397357852e+00
-8.365884588523300192e-01 -7.231027226227819682e-01 1.007792815515527574e+00
-8.365944356367431833e-01 -7.217032501601259309e-01 1.007800015424070050e+00
-8.366166553081412216e-01 -7.203177425746011275e-01 1.007826782259018783e+00
-8.366226039777888701e-01 -7.189181785409262115e-01 1.007833948299225790e+00
-8.366226039777888701e-01 -7.175134927680834052e-01 1.007833948299225790e+00
-8.366425667553426537e-01 -7.161258941749920615e-01 1.007857996376369858e+00
-8.366484766136543794e-01 -7.147262235172583411e-01 1.007865115662662125e+00
-8.366484766136543794e-01 -7.133214943043705292e-01 1.007865115662662125e+00
-8.366624601969570030e-01 -7.119286639327134791e-01 1.007881960928262322e+00
-8.367489144392162848e-01 -7.105973312994485758e-01 1.007986107672456333e+00
-8.317797283006608255e-01 -7.049807647552578382e-01 1.001999998210385101e+00
-8.366844727149501670e-01 -7.077330257645985112e-01 1.007908478216721360e+00
-8.265553230273198215e-01 -6.977772175817169575e-01 9.957064400766314494e-01
-8.366925171949318729e-01 -7.049302240999252289e-01 1.007918168966150718e+00
-8.366785922869321990e-01 -7.035137123087222832e-01 1.007901394383510674e+00
-8.366646385886109538e-01 -7.020972231174955613e-01 1.007884585118729026e+00
-8.366646385886109538e-01 -7.006924667687209896e-01 1.007884585118729026e+00
-8.366785922869327541e-01 -6.992993729777997602e-01 1.007901394383511118e+00
-8.366925171949318729e-01 -6.979062083157491214e-01 1.007918168966150718e+00
-8.350895429206146581e-01 -6.951670155097287029e-01 1.005987152658168959e+00
-8.562541243708854388e-01 -7.113477413373392455e-01 1.031482977879373930e+00
-8.578877374886377805e-01 -7.112645035011361250e-01 1.033450903142963062e+00
-8.558027677798165644e-01 -7.080989907670973693e-01 1.030939253034856007e+00
-8.546009592774365116e-01 -7.056697321312641602e-01 1.029491499409392885e+00
-8.545820660787641909e-01 -7.042192918156348069e-01 1.029468739796010057e+00
-8.545610052689690539e-01 -7.027671323602840969e-01 1.029443368978882667e+00
-8.557231450956591656e-01 -7.022860882356644074e-01 1.030843335898781854e+00
-8.575712530528505351e-01 -7.023629592354647677e-01 1.033069651480650553e+00
-8.605975033292333487e-01 -7.033965613952977147e-01 1.036715211318607777e+00
-8.666529766112308630e-01 -7.068908057209752904e-01 1.044009912080455793e+00
-8.678006685713214319e-01 -7.063698940840845708e-01 1.045392474437807584e+00
-8.647953966622314859e-01 -7.024716837216532506e-01 1.041772186102959630e+00
-8.617720998639276653e-01 -6.985689537164846419e-01 1.038130184160114933e+00
-8.606225759985236534e-01 -6.961921460524500560e-01 1.036745415005628779e+00
-8.636588425735837182e-01 -6.971982244552276109e-01 1.040403040936224599e+00
-8.666646335216436903e-01 -6.981695564797859577e-01 1.044023954529214038e+00
-8.678006685713214319e-01 -6.976276924246281874e-01 1.045392474437807584e+00
-8.708038174985412994e-01 -6.985798574278325734e-01 1.049010205331355028e+00
-8.726893940677890038e-01 -6.986272707403370363e-01 1.051281657321260665e+00
-8.726750192043239984e-01 -6.971505453891935211e-01 1.051264340701636435e+00
-8.726893940677890038e-01 -6.956967872221309079e-01 1.051281657321260665e+00
-8.708081605771871292e-01 -6.927350088459507393e-01 1.049015437203024037e+00
-8.708072077566985092e-01 -6.912721692931255157e-01 1.049014289391776211e+00
-8.708038174985412994e-01 -6.898074021231717090e-01 1.049010205331355028e+00
-8.696617547566474205e-01 -6.874425585491901192e-01 1.047634424188345292e+00
-8.678024974266175251e-01 -6.845158325222177043e-01 1.045394677560750996e+00
-8.647915902322528270e-01 -6.806888710619256599e-01 1.041767600702880658e+00
-8.587519150517055611e-01 -6.744931222460763820e-01 1.034491931058390213e+00
-8.557136481089164803e-01 -6.706700239302889610e-01 1.030831895393110154e+00
-8.545918549702243849e-01 -6.683559566528359808e-01 1.029480531943488320e+00
-8.546206157152327343e-01 -6.669435453896579435e-01 1.029515178455619351e+00
-8.558331496452106224e-01 -6.664528632906230321e-01 1.030975852422932881e+00
-8.578707142577061129e-01 -6.665991907110873083e-01 1.033430396178459443e+00
-8.591236951489357176e-01 -6.661303409968917233e-01 1.034939794409809322e+00
-8.611453467624049507e-01 -6.662519898923608963e-01 1.037375168637090228e+00
-8.562474782898961134e-01 -6.610249651421410411e-01 1.031474971705488075e+00
-8.591386110140766252e-01 -6.618144360084470268e-01 1.034957762744857623e+00
-8.578794169330966612e-01 -6.594040736769156696e-01 1.033440879820256786e+00
-8.558494081986159907e-01 -6.564067516582073880e-01 1.030995438221827376e+00
-8.558218517271357628e-01 -6.549486955746116612e-01 1.030962242432804876e+00
-8.558412599185005742e-01 -6.535265945826544964e-01 1.030985622429997806e+00
-8.558886910268196369e-01 -6.521257798704713782e-01 1.031042760117818036e+00
-8.578522838152712326e-01 -6.521815663898210547e-01 1.033408194022457760e+00
-8.578616578254727454e-01 -6.507483469207784310e-01 1.033419486384949515e+00
-8.558772297477617030e-01 -6.478060045766714792e-01 1.031028953335559661e+00
-8.558494081986174340e-01 -6.463479791940941466e-01 1.030995438221829152e+00
-8.558299141637338847e-01 -6.448963222951755725e-01 1.030971954813597602e+00
-8.558299141637338847e-01 -6.434593875307031974e-01 1.030971954813597602e+00
-8.558299141637338847e-01 -6.420224527662308223e-01 1.030971954813597602e+00
-8.558299141637338847e-01 -6.405855180017585582e-01 1.030971954813597602e+00
-8.558299141637338847e-01 -6.391485832372862941e-01 1.030971954813597602e+00
-8.558186562896795690e-01 -6.377032597996644681e-01 1.030958393062332723e+00
-8.558299141637338847e-01 -6.362747137083416549e-01 1.030971954813597602e+00
-8.558299141637338847e-01 -6.348377789438692798e-01 1.030971954813597602e+00
-8.558299141637338847e-01 -6.334008441793970157e-01 1.030971954813597602e+00
-8.558299141637338847e-01 -6.319639094149246406e-01 1.030971954813597602e+00
-8.558299141637338847e-01 -6.305269746504523765e-01 1.030971954813597602e+00
-8.558412599185005742e-01 -6.290983797455719229e-01 1.030985622429997806e+00
-8.558412599185005742e-01 -6.276614259316259936e-01 1.030985622429997806e+00
-8.558299141637338847e-01 -6.262161703570354732e-01 1.030971954813597602e+00
-8.558299141637338847e-01 -6.247792355925630980e-01 1.030971954813597602e+00
-8.558494081986174340e-01 -6.233564992761183587e-01 1.030995438221829152e+00
-8.558575867948876592e-01 -6.219254749164674356e-01 1.031005290533888896e+00
-8.558772297477590385e-01 -6.205027346410955102e-01 1.031028953335556553e+00
-8.558886910268196369e-01 -6.190740105072698451e-01 1.031042760117818036e+00
-8.578654878241267490e-01 -6.190634975972106879e-01 1.033424100176935312e+00
-8.578829482336882695e-01 -6.176357157938981990e-01 1.033445133786861314e+00
-8.590430822772066044e-01 -6.170286285429827933e-01 1.034842684448385564e+00
-8.590856346623879647e-01 -6.156167917253709820e-01 1.034893945002622440e+00
-8.591236951489357176e-01 -6.142016006853107113e-01 1.034939794409809322e+00
-8.591236951489357176e-01 -6.127591356766557418e-01 1.034939794409809322e+00
-8.578923928677274491e-01 -6.104405272029974627e-01 1.033456511226065855e+00
-8.611218907902321584e-01 -6.112926835646447232e-01 1.037346912497543405e+00
-8.383698787888562709e-01 -5.937338796972467803e-01 1.009938795650025423e+00
-8.611275225763475039e-01 -6.084050226008778095e-01 1.037353696805318082e+00
-8.557095562775571818e-01 -6.031403807836436259e-01 1.030826966185442339e+00
-8.708081756422555442e-01 -6.123204447525213423e-01 1.049015455351096193e+00
-8.737624564287362894e-01 -6.129307434731762205e-01 1.052574317441681506e+00
-8.737583579161147807e-01 -6.114608318856264990e-01 1.052569380185458980e+00
-8.737595152694002110e-01 -6.099946033197023443e-01 1.052570774386291763e+00
-8.737595152694002110e-01 -6.085275648316800234e-01 1.052570774386291763e+00
-8.737586321688532998e-01 -6.070599127932774230e-01 1.052569710562882399e+00
-8.737585655136551610e-01 -6.055928295899634106e-01 1.052569630266974476e+00
-8.737617877542227518e-01 -6.041280205873399423e-01 1.052573511925703587e+00
-8.726334978765787342e-01 -6.018827612789406922e-01 1.051214322206461604e+00
-8.726529897666807090e-01 -6.004310248119808513e-01 1.051237803030991014e+00
-8.726848651710988891e-01 -5.989877226068784921e-01 1.051276201604655736e+00
-8.708080460052286531e-01 -5.962374407752049077e-01 1.049015299184389738e+00
-8.708081756422555442e-01 -5.947754463355436894e-01 1.049015455351096193e+00
-8.708076953452740243e-01 -5.933130358902817258e-01 1.049014876763330273e+00
-8.696394869282420004e-01 -5.910569719202499739e-01 1.047607599341257467e+00
-8.696948646304809571e-01 -5.896343958321585976e-01 1.047674309860468611e+00
-8.647935528429705476e-01 -5.848594272779249481e-01 1.041769964953737970e+00
-8.636511606532198959e-01 -5.826367614338946455e-01 1.040393786942734655e+00
-8.617669292312363227e-01 -5.799187173382710503e-01 1.038123955378899010e+00
-8.606405382754999112e-01 -5.777157103537152727e-01 1.036767053188053289e+00
-8.575825970948356414e-01 -5.742231516321872897e-01 1.033083317033755666e+00
-8.557242384921555090e-01 -5.715420680506968498e-01 1.030844653054334037e+00
-8.545789425555327945e-01 -5.693422853544386486e-01 1.029464977056710362e+00
-8.546091780189535303e-01 -5.679275438375389617e-01 1.029501400082257545e+00
-8.546233907102271932e-01 -5.665020798151199077e-01 1.029518521341824533e+00
-8.546233907102271932e-01 -5.650671707983643266e-01 1.029518521341824533e+00
-8.557709207476067448e-01 -5.643890687652006743e-01 1.030900888639654456e+00
-8.546233907102271932e-01 -5.621973527648531643e-01 1.029518521341824533e+00
-8.546177291492589312e-01 -5.607587289062166969e-01 1.029511701165896742e+00
-8.546065186176829975e-01 -5.593164924102083102e-01 1.029498196445552294e+00
-8.545924268374739396e-01 -5.578724126985836751e-01 1.029481220840997580e+00
-8.545842336669372541e-01 -5.564322209775652839e-01 1.029471350972108290e+00
-8.545748963985406732e-01 -5.549913137513260430e-01 1.029460102870479510e+00
-8.545877606506402380e-01 -5.535648190598638774e-01 1.029475599738390867e+00
-8.546054301794401287e-01 -5.521413857517687429e-01 1.029496885262939365e+00
-8.546233907102271932e-01 -5.507180806308080712e-01 1.029518521341824533e+00
-8.558155016489779054e-01 -5.500493646348270094e-01 1.030954592837501904e+00
-8.558348350492865908e-01 -5.486248475627930610e-01 1.030977882737959206e+00
-8.558543763327873810e-01 -5.472003984818908373e-01 1.031001423064041633e+00
-8.558740145229216667e-01 -5.457759455771972190e-01 1.031025080128297855e+00
-8.578829482336882695e-01 -5.456166257992738355e-01 1.033445133786861314e+00
-8.590791301616268472e-01 -5.449350116028471858e-01 1.034886109382771036e+00
-8.591020827214329580e-01 -5.435071422543094055e-01 1.034913759088699425e+00
-8.591020827214329580e-01 -5.420647135328277022e-01 1.034913759088699425e+00
-8.591020827214329580e-01 -5.406222848113458879e-01 1.034913759088699425e+00
-8.590791301616268472e-01 -5.391654508659192713e-01 1.034886109382771036e+00
-8.578944020897940614e-01 -5.369815043075478744e-01 1.033458931627091015e+00
-8.578815942134354611e-01 -5.355331079520584403e-01 1.033443502671982150e+00
-8.578692641335670110e-01 -5.340850520678401825e-01 1.033428649292432722e+00
-8.578507264636222596e-01 -5.326331833410710148e-01 1.033406317965256171e+00
-8.558543763327873810e-01 -5.299566884456967664e-01 1.031001423064041633e+00
-8.558461862106229168e-01 -5.285146549253155746e-01 1.030991556867361325e+00
-8.558543763327873810e-01 -5.270827367729977730e-01 1.031001423064041633e+00
-8.558740145229216667e-01 -5.256578222541831158e-01 1.031025080128297855e+00
-8.578654878241267490e-01 -5.254405861411411971e-01 1.033424100176935312e+00
-8.590357432781812186e-01 -5.247150475063033781e-01 1.034833843553663035e+00
-8.611196975681545407e-01 -5.245421493508352073e-01 1.037344270441668437e+00
-8.611402657622528878e-01 -5.231088274312580833e-01 1.037369047831340874e+00
-8.493097707087464698e-01 -5.144962797193097792e-01 1.023117491056015682e+00
-8.367489144392162848e-01 -5.054822455546491566e-01 1.007986107672456333e+00
-8.316663424801986615e-01 -5.010154860799904686e-01 1.001863408452262183e+00
-8.317797282916259416e-01 -4.996872377707831103e-01 1.001999998199501141e+00
-8.287623328507449649e-01 -4.964830651333724254e-01 9.983651053023882005e-01
-8.366844727149501670e-01 -4.998241575368085332e-01 1.007908478216721360e+00
-8.366764149007486218e-01 -4.984145677848000333e-01 1.007898771404279525e+00
-8.366705329233119492e-01 -4.970062976003178368e-01 1.007891685704567886e+00
-8.366764149007486218e-01 -4.956050155424955861e-01 1.007898771404279525e+00
-8.366844727149501670e-01 -4.942049989360574602e-01 1.007908478216721360e+00
-8.366903408044401580e-01 -4.928036655418696066e-01 1.007915547186375882e+00
-8.287623328507449649e-01 -4.867426462546347588e-01 9.983651053023882005e-01
-8.317797282916259416e-01 -4.871182463232228144e-01 1.001999998199501141e+00
-8.693373280793391666e-01 -8.082319571497194044e-01 1.049005543805681562e+00
-8.693443374387754830e-01 -8.067763926485878034e-01 1.049014001807736296e+00
-8.712183019176892307e-01 -8.070502523989763199e-01 1.051275263419058748e+00
-8.711822323508381372e-01 -8.055516672875870920e-01 1.051231739260636733e+00
-8.722961087828864368e-01 -8.051145842474339842e-01 1.052575823443602454e+00
-8.722915690255736987e-01 -8.036433562378892947e-01 1.052570345442791044e+00
-8.722907872878271629e-01 -8.021755994464550010e-01 1.052569402141263044e+00
-8.722907872878271629e-01 -8.007085628710226555e-01 1.052569402141263044e+00
-8.722909058078612832e-01 -7.992416348902633416e-01 1.052569545156142095e+00
-8.722913239504215266e-01 -7.977749805378229198e-01 1.052570049717317380e+00
-8.722916932723373540e-01 -7.963082802109151537e-01 1.052570495367957770e+00
-8.722921455981780259e-01 -7.948416542757789083e-01 1.052571041177161160e+00
-8.722921455981780259e-01 -7.933746154159122543e-01 1.052571041177161160e+00
-8.722912088848309153e-01 -7.919067261638915722e-01 1.052569910870820635e+00
-8.722915463353468901e-01 -7.904399946652265196e-01 1.052570318063115851e+00
-8.722919697183706411e-01 -7.889733397559997030e-01 1.052570828947814618e+00
-8.722916721150307806e-01 -7.875060325152570817e-01 1.052570469838015388e+00
-8.722921218526751286e-01 -7.860393997190442406e-01 1.052571012524113225e+00
-8.722924713789891316e-01 -7.845726752762333112e-01 1.052571434287943086e+00
-8.722928530098350564e-01 -7.831059784797718137e-01 1.052571894791432650e+00
-8.722928530098350564e-01 -7.816389384301657417e-01 1.052571894791432650e+00
-8.722928530098350564e-01 -7.801718983805595586e-01 1.052571894791432650e+00
-8.722950257211998792e-01 -7.787067979328767819e-01 1.052574516542728933e+00
-8.722967835885325760e-01 -7.772413205391048852e-01 1.052576637713093621e+00
-8.711671148424593447e-01 -7.747696066972307172e-01 1.051213497377324391e+00
-8.711671148424593447e-01 -7.733044599372131955e-01 1.051213497377324391e+00
-8.711671148424593447e-01 -7.718393131771958959e-01 1.051213497377324391e+00
-8.711705033263398290e-01 -7.703771628577008590e-01 1.051217586168016860e+00
-8.711799173275486252e-01 -7.689203193792135682e-01 1.051228945785438684e+00
-8.711656366045714694e-01 -7.674425706617967746e-01 1.051211713628152022e+00
-8.722957068187123797e-01 -7.669710471620709846e-01 1.052575338404442951e+00
-8.722943980964782407e-01 -7.655028538123099802e-01 1.052573759205167159e+00
-8.711615612260367181e-01 -7.630435682480917192e-01 1.051206795980493380e+00
-8.712157032928924405e-01 -7.616257623820767986e-01 1.051272127729689254e+00
-8.621963176774156690e-01 -7.522908628705617939e-01 1.040388682136412335e+00
-8.531818210275093906e-01 -7.429905588747286460e-01 1.029511135923986798e+00
-8.352254816606110577e-01 -7.259486409148884212e-01 1.007843713010089459e+00
-8.351631901075403652e-01 -7.244899046663686448e-01 1.007768547499081402e+00
-8.351773224477689883e-01 -7.230975458444385273e-01 1.007785600606969423e+00
-8.351833016242997676e-01 -7.216980941794586268e-01 1.007792815515527574e+00
-8.352033434265109246e-01 -7.203107505395386356e-01 1.007816999409337555e+00
-8.352033434265109246e-01 -7.189060883895005416e-01 1.007816999409337555e+00
-8.352173893986569730e-01 -7.175134927680834052e-01 1.007833948299225790e+00
-8.352092837167213180e-01 -7.161018572474330268e-01 1.007824167394837822e+00
-8.352373186461745647e-01 -7.147211748847311918e-01 1.007857996376369858e+00
-8.352373186461745647e-01 -7.133164555944703222e-01 1.007857996376369858e+00
-8.352373186461745647e-01 -7.119117363042094526e-01 1.007857996376369858e+00
-8.352571786742114535e-01 -7.105239112414492020e-01 1.007881960928262322e+00
-8.320400250167939715e-01 -7.063878497357001240e-01 1.003999909723395811e+00
-8.311408678361902336e-01 -7.042266507657113372e-01 1.002914921380275048e+00
-8.352711099392948757e-01 -7.063214337153254085e-01 1.007898771404279525e+00
-8.352791542193676033e-01 -7.049234464642230025e-01 1.007908478216721360e+00
-8.352871851876172427e-01 -7.035254209430900074e-01 1.007918168966150718e+00
-8.352732836682801310e-01 -7.021089325317479979e-01 1.007901394383510674e+00
-8.352593534069783221e-01 -7.006924667687209896e-01 1.007884585118729026e+00
-8.352593534069783221e-01 -6.992877104199465288e-01 1.007884585118729026e+00
-8.352732836682804640e-01 -6.978945932008254749e-01 1.007901394383511118e+00
-8.352791542193676033e-01 -6.964947085630963652e-01 1.007908478216721360e+00
-8.278140793224875171e-01 -6.888777462775210747e-01 9.989005767970814409e-01
-8.385634378632667030e-01 -6.964126709624569589e-01 1.011871533337674434e+00
-8.596938706369321448e-01 -7.125152851247208430e-01 1.037369047831340874e+00
-8.564298107619677802e-01 -7.083696672249627513e-01 1.033430396178459443e+00
-8.531897713258813631e-01 -7.042548558228720612e-01 1.029520729331284246e+00
-8.531537472549898249e-01 -7.027902686946884137e-01 1.029477260071590683e+00
-8.542722827228306226e-01 -7.022749359862910934e-01 1.030826966185442339e+00
-8.542858487167760417e-01 -7.008493327360006964e-01 1.030843335898781854e+00
-8.562003055584958000e-01 -7.009799626679066309e-01 1.033153458535270630e+00
-8.561568672550404768e-01 -6.995044970667061435e-01 1.033101042724208218e+00
-8.603210444988244054e-01 -7.014598426269025300e-01 1.038125841353032319e+00
-8.633390622408655402e-01 -7.024685917656987577e-01 1.041767600702880658e+00
-8.621793181235596348e-01 -7.000749179200119743e-01 1.040368169240369234e+00
-8.621793181235596348e-01 -6.986248870212546924e-01 1.040368169240369234e+00
-8.591770503993190200e-01 -6.947471644292610993e-01 1.036745415005628779e+00
-8.561471490585594868e-01 -6.908572417869198734e-01 1.033089316042683059e+00
-8.573095314666211442e-01 -6.903533709521619821e-01 1.034491931058390213e+00
-8.603256821232300178e-01 -6.913352299887942642e-01 1.038131437447384231e+00
-8.663430864483201432e-01 -6.947136252048092819e-01 1.045392474437807584e+00
-8.682010467015611743e-01 -6.947433503774524954e-01 1.047634424188345292e+00
-8.693411912031306921e-01 -6.941936297755020302e-01 1.049010205331354806e+00
-8.693445757669162610e-01 -6.927342508694647183e-01 1.049014289391776211e+00
-8.693411912031308031e-01 -6.912694780072818901e-01 1.049010205331355028e+00
-8.682010467015611743e-01 -6.889027169148426166e-01 1.047634424188345292e+00
-8.682173026151739359e-01 -6.874554299997461815e-01 1.047654039754073896e+00
-8.663449122318198636e-01 -6.845158325222177043e-01 1.045394677560750996e+00
-8.651814798821853003e-01 -6.821415021765647735e-01 1.043990795609304190e+00
-8.621793181235596348e-01 -6.783244544386528574e-01 1.040368169240369234e+00
-8.591649489607010581e-01 -6.745079211817933684e-01 1.036730812531090784e+00
-8.542878745767493731e-01 -6.692422987859221184e-01 1.030845780448526039e+00
-8.531344724704357230e-01 -6.669039136952279456e-01 1.029454001716979761e+00
-8.531596076115123273e-01 -6.654887007270027244e-01 1.029484331603298886e+00
-8.531793840791083161e-01 -6.640692323081539561e-01 1.029508195325095965e+00
-8.543575577272231047e-01 -6.635493836041227445e-01 1.030929865197674378e+00
-8.544511165923935891e-01 -6.621850140244925909e-01 1.031042760117823365e+00
-8.564384988200998139e-01 -6.622848254186211037e-01 1.033440879820253011e+00
-8.576591109849978078e-01 -6.617862974158098543e-01 1.034913759088699425e+00
-8.596866097327550138e-01 -6.619049159096130897e-01 1.037360286297136946e+00
-8.596733369897441301e-01 -6.604488804395302060e-01 1.037344270441668437e+00
-8.564534588073144938e-01 -6.565347898695824691e-01 1.033458931627091015e+00
-8.564298107619677802e-01 -6.550763006382941400e-01 1.033430396178459443e+00
-8.544511165923891483e-01 -6.521257798704713782e-01 1.031042760117818036e+00
-8.544314789794349441e-01 -6.506737918209650751e-01 1.031019063948114045e+00
-8.544511165923891483e-01 -6.492517129693233802e-01 1.031042760117818036e+00
-8.564114112758162145e-01 -6.493009057608907231e-01 1.033408194022457760e+00
-8.564207695411698573e-01 -6.478676548140021030e-01 1.033419486384949515e+00
-8.564207695411698573e-01 -6.464273087606139390e-01 1.033419486384949515e+00
-8.564207695411698573e-01 -6.449869627072257749e-01 1.033419486384949515e+00
-8.564207695411698573e-01 -6.435466166538376109e-01 1.033419486384949515e+00
-8.564114112758162145e-01 -6.420992541885649496e-01 1.033408194022457760e+00
-8.564114112758162145e-01 -6.406589238740998393e-01 1.033408194022457760e+00
-8.564168954121030852e-01 -6.392226868748778212e-01 1.033414811579511872e+00
-8.564168954121030852e-01 -6.377823473370795027e-01 1.033414811579511872e+00
-8.564114112758162145e-01 -6.363379329307043974e-01 1.033408194022457760e+00
-8.564168954121030852e-01 -6.349016682614828655e-01 1.033414811579511872e+00
-8.564207695411695243e-01 -6.334641942801200187e-01 1.033419486384949071e+00
-8.564260726998541573e-01 -6.320277618669410957e-01 1.033425885561287449e+00
-8.564260726998595974e-01 -6.305874068945955813e-01 1.033425885561293889e+00
-8.564260726998541573e-01 -6.291470519222421842e-01 1.033425885561287449e+00
-8.564260726998541573e-01 -6.277066969498926730e-01 1.033425885561287449e+00
-8.564349111192606223e-01 -6.262728051210264546e-01 1.033436550639912799e+00
-8.564384988200990367e-01 -6.248350527764192641e-01 1.033440879820252123e+00
-8.564433789988690204e-01 -6.233982291483379790e-01 1.033446768598312415e+00
-8.564468054002076780e-01 -6.219603333572104598e-01 1.033450903142963062e+00
-8.575808351931851758e-01 -6.213415801883546141e-01 1.034819305834588477e+00
-8.576255009332334200e-01 -6.199315695854226149e-01 1.034873202759769795e+00
-8.576652331893480641e-01 -6.185178508887386739e-01 1.034921146585009888e+00
-8.596755265280250358e-01 -6.185217834175852358e-01 1.037346912497543405e+00
-8.596958264084920698e-01 -6.170905347217519044e-01 1.037371407807316404e+00
-8.575629553103677472e-01 -6.141172906828867850e-01 1.034797730669698712e+00
-8.446848470302539269e-01 -6.034744218486042255e-01 1.019258070122261328e+00
-8.303826479501212887e-01 -5.918598417259870459e-01 1.001999998210385101e+00
-8.251664907598120768e-01 -5.867542147691258148e-01 9.957058041924135017e-01
-8.275812660647237085e-01 -5.870794548695545956e-01 9.986196474153818947e-01
-8.303826479411016148e-01 -5.876701779037046824e-01 1.001999998199501141e+00
-8.543544639523219519e-01 -6.031984030548225295e-01 1.030926132024235553e+00
-8.633377606415619798e-01 -6.080888852725018223e-01 1.041766030098650209e+00
-8.711827305748408579e-01 -6.121492889580716357e-01 1.051232340453895020e+00
-8.722921792383181439e-01 -6.114618203736010837e-01 1.052571081769796857e+00
-8.722914794553597861e-01 -6.099942920982445171e-01 1.052570237360867189e+00
-8.722929253804621030e-01 -6.085282630637744994e-01 1.052571982119086202e+00
-8.722916056711026433e-01 -6.070603044574255369e-01 1.052570389661947159e+00
-8.722908207886405085e-01 -6.055927215966336874e-01 1.052569442565777003e+00
-8.722925392891129892e-01 -6.041268751530968206e-01 1.052571516233229643e+00
-8.722957537015113560e-01 -6.026620564425496651e-01 1.052575394976632328e+00
-8.711576208605953386e-01 -6.004105989073130756e-01 1.051202041249436503e+00
-8.711767267572286810e-01 -5.989586039580054866e-01 1.051225095811618937e+00
-8.711920758020755828e-01 -5.975039681199625363e-01 1.051243617083645887e+00
-8.711942457774692894e-01 -5.960402640004407449e-01 1.051246235533520812e+00
-8.711994575653583261e-01 -5.945786285665514148e-01 1.051252524455222659e+00
-8.712131495196692166e-01 -5.931227489075224790e-01 1.051269046161485310e+00
-8.693454126075008670e-01 -5.903891088401858056e-01 1.049015299184389738e+00
-8.682341009631302509e-01 -5.881741818751696771e-01 1.047674309860468611e+00
-8.663311343109977303e-01 -5.854280277390858656e-01 1.045378052121053614e+00
-8.652357778146413381e-01 -5.832326632481047435e-01 1.044056315437251081e+00
-8.622005481590513387e-01 -5.797366282261600112e-01 1.040393786942734655e+00
-8.573007357242121707e-01 -5.750002082424586769e-01 1.034481317476928952e+00
-8.542828981507838426e-01 -5.715393637543552119e-01 1.030839775531610991e+00
-8.531378211306908099e-01 -5.693384501945505383e-01 1.029458042453594180e+00
