-1.345207921437525211e+00 -1.002952752872926290e+00 1.343035724395795327e+00
-1.345602085006025961e+00 -1.001374203730569512e+00 1.343429251482066267e+00
-1.347479241755455082e+00 -1.000896112331006282e+00 1.345303377061166206e+00
-1.345775993961596306e+00 -9.977582849124676523e-01 1.343602879615235279e+00
-1.347605817407233175e+00 -9.972397002816232314e-01 1.345429748322788832e+00
-1.347375568403068158e+00 -9.951944187837109546e-01 1.345199871117062962e+00
-1.343586172602694306e+00 -9.905258845736354401e-01 1.341416594307081933e+00
-1.346173948786469898e+00 -9.905604357512620695e-01 1.344000191835884150e+00
-1.345655347424389747e+00 -9.883063297129927038e-01 1.343482427894047149e+00
-1.344404827283415260e+00 -9.855171332590385580e-01 1.342233927051433406e+00
-1.343201203360136153e+00 -9.827657291003126794e-01 1.341032246700061714e+00
-1.344085387876586379e+00 -9.815423340278425224e-01 1.341915003464741796e+00
-1.343233064713884817e+00 -9.790507789064227806e-01 1.341064056605155264e+00
-1.343233064713884817e+00 -9.771816479806755273e-01 1.341064056605155264e+00
-1.345499052457693079e+00 -9.769578355540674552e-01 1.343326385307267890e+00
-1.345894679470711397e+00 -9.753722630676060490e-01 1.343721373474934921e+00
-1.344362822939212165e+00 -9.723914209173869505e-01 1.342191990534449486e+00
-1.345167556481574600e+00 -9.711016701410072338e-01 1.342995424619834122e+00
-1.344362907957606046e+00 -9.686500761696158479e-01 1.342192075415558294e+00
-1.345555541237664521e+00 -9.676370382278960403e-01 1.343382782871034964e+00
-1.343414920614094399e+00 -9.642282575167092640e-01 1.341245618850501309e+00
-1.343322645323852038e+00 -9.622927718843767853e-01 1.341153492563330829e+00
-1.344217114426361714e+00 -9.610630269725509711e-01 1.342046517306862530e+00
-1.342485721996495851e+00 -9.579570576470068932e-01 1.340317920671947327e+00
-1.350339442672884083e+00 -9.616822147401717924e-01 1.348158959421216441e+00
-1.303081079666165376e+00 -9.262125835239938265e-01 1.300976907648385250e+00
-1.303717030492169915e+00 -9.248504651424083178e-01 1.301611831562132560e+00
-1.304718276709741165e+00 -9.237452073327478974e-01 1.302611461000589665e+00
-1.306499374141907754e+00 -9.231882152958148513e-01 1.304389682375819870e+00
-1.309148163906805884e+00 -9.232381808653474797e-01 1.307034194963041740e+00
-1.308885441755575307e+00 -9.212315681639571263e-01 1.306771897046808961e+00
-1.341529041881482254e+00 -1.033383300969690888e+00 1.341229831367101832e+00
-1.343419653879991404e+00 -1.032967647834319491e+00 1.343120021689321542e+00
-1.345892147753804391e+00 -1.032993329193036214e+00 1.345591964105700145e+00
-1.339905755818347588e+00 -1.026531579507044656e+00 1.339606907356701626e+00
-1.346952545329208606e+00 -1.030053362177483001e+00 1.346652125173288139e+00
-1.341670506149804876e+00 -1.024144475755468964e+00 1.341371264083669024e+00
-1.341441786867123342e+00 -1.022100645859123524e+00 1.341142595813833216e+00
-1.343408951370581583e+00 -1.021727529284788716e+00 1.343109321566966496e+00
-1.339289171487197727e+00 -1.016727996467917894e+00 1.338990460546626071e+00
-1.343022222400676258e+00 -1.017690517867626099e+00 1.342722678851902218e+00
-1.341620559919195710e+00 -1.014758902516242234e+00 1.341321328992913564e+00
-1.345448273479481038e+00 -1.015779239433895809e+00 1.345148188831730707e+00
-1.344311707194444150e+00 -1.013047921285644914e+00 1.344011876042944920e+00
-1.342090199659122796e+00 -1.009503691224221456e+00 1.341790863985836468e+00
-1.342467926602303852e+00 -1.007917142499080931e+00 1.342168506681961082e+00
-1.340351678296646476e+00 -1.004460554157875274e+00 1.340052730377821577e+00
-1.338751763508508219e+00 -1.001396084852951063e+00 1.338453172429760363e+00
-1.340752338866828097e+00 -1.001024250138994320e+00 1.340453301585901036e+00
-1.345245395666828214e+00 -1.002504287969418595e+00 1.344945356268321790e+00
-1.337738023612125238e+00 -9.950455619379782179e-01 1.337439658634808293e+00
-1.340015994339060157e+00 -9.948727242897275058e-01 1.339717121290153523e+00
-1.347312887191933761e+00 -9.984127602570518345e-01 1.347012386666471828e+00
-1.343279250504448186e+00 -9.935518732550432386e-01 1.342979649628915695e+00
-1.349081525972050999e+00 -9.959636202966849483e-01 1.348780630974831363e+00
-1.343589187498220650e+00 -9.900366516857769250e-01 1.343289517495293683e+00
-1.346728782187214035e+00 -9.904734847260765473e-01 1.346428411938737080e+00
-1.342533361566247141e+00 -9.855171332590808575e-01 1.342233927051490916e+00
-1.342481781613406477e+00 -9.836085802439046288e-01 1.342182358602884706e+00
-1.344251407592909731e+00 -9.830319930513842230e-01 1.343951589890448162e+00
-1.345233041313562250e+00 -9.818753245336803159e-01 1.344933004670532783e+00
-1.343765878200247066e+00 -9.789319744700456516e-01 1.343466168788769011e+00
-1.347064746563806814e+00 -9.794581207303065806e-01 1.346764301382867846e+00
-1.343681661670885985e+00 -9.751258997032559162e-01 1.343381971042803658e+00
-1.337738023612125238e+00 -9.689484509092564091e-01 1.337439658634808293e+00
-1.343674051916440515e+00 -9.713756753037531277e-01 1.343374362985614745e+00
-1.341544832886858885e+00 -9.679670254791625794e-01 1.341245618850501309e+00
-1.341529041881482254e+00 -9.660862697922145692e-01 1.341229831367101832e+00
-1.342491489428332629e+00 -9.649086619020682543e-01 1.342192064252609507e+00
-1.342145714290695402e+00 -9.627899165664337566e-01 1.341846366235596166e+00
-1.345831708812239125e+00 -9.635587118183307487e-01 1.345531538644250569e+00
-1.340797448624859944e+00 -9.580860514269599060e-01 1.340498401282791185e+00
-1.349344287501415662e+00 -9.623130655758213026e-01 1.349043333898672037e+00
-1.348774068811708915e+00 -9.600269446008160568e-01 1.348473242388789295e+00
-1.299652536533313363e+00 -9.232523375425724099e-01 1.299362666025980717e+00
-1.299144981191028059e+00 -9.210814767155145466e-01 1.298855223887278809e+00
-1.301888025485129941e+00 -9.212121451613695111e-01 1.301597656381211943e+00
-1.304891223910238818e+00 -9.215188907690331499e-01 1.304600184982174449e+00
-1.303426345020797461e+00 -9.186681204740689832e-01 1.303135632814818257e+00
-1.340084151311410121e+00 -1.033711271671523102e+00 1.341655505063104936e+00
-1.340385924246537908e+00 -1.032073676276963559e+00 1.341957631850663191e+00
-1.342886520879922330e+00 -1.032125226173317367e+00 1.344461160629687235e+00
-1.343442240938951482e+00 -1.030677704279243878e+00 1.345017532314063180e+00
-1.340089922918932253e+00 -1.026235870478526602e+00 1.341661283438289498e+00
-1.343429968205408498e+00 -1.026919040690974283e+00 1.345005245189777821e+00
-1.343880182910683008e+00 -1.025387932949937797e+00 1.345455987807098408e+00
-1.345636482983531002e+00 -1.024850296517189729e+00 1.347214347279504176e+00
-1.343877222054694398e+00 -1.021635177554089946e+00 1.345453023479273869e+00
-1.340659768095794346e+00 -1.017318463374084159e+00 1.342231796803306398e+00
-1.341748923120285264e+00 -1.016272656900104820e+00 1.343322228947471109e+00
-1.322534484407852373e+00 -9.998737160047074246e-01 1.324085259798924996e+00
-1.280571493650730641e+00 -9.663615892977918120e-01 1.282073064144563013e+00
-1.261216531509196326e+00 -9.499957916407651970e-01 1.262695406792175401e+00
-1.239318686969690608e+00 -9.317721634143635301e-01 1.240771885312801803e+00
-1.227606411739417203e+00 -9.212533762518856362e-01 1.229045876521388969e+00
-1.230836935337775273e+00 -9.219602009886784799e-01 1.232280188161991585e+00
-1.247292548854407102e+00 -9.325458285482866039e-01 1.248755097175858086e+00
-1.279085810181177507e+00 -9.545314148414080213e-01 1.280585638594640141e+00
-1.338615950480773087e+00 -9.970885098115133127e-01 1.340185582651863383e+00
-1.338483253803990358e+00 -9.951219472951208234e-01 1.340052730377821577e+00
-1.338483253803926631e+00 -9.932542259225225489e-01 1.340052730377757628e+00
-1.339989771306294042e+00 -9.925023505020751369e-01 1.341561014390032058e+00
-1.345490341240098919e+00 -9.946990083418026929e-01 1.347068034173417805e+00
-1.339454998892015469e+00 -9.883681010844629355e-01 1.341025614913162967e+00
-1.343592858093832110e+00 -9.895465274358737906e-01 1.345168326079368759e+00
-1.340455748586962370e+00 -9.853655949335997644e-01 1.342027538065602155e+00
-1.338885860223329338e+00 -9.823432908396131369e-01 1.340455808884758016e+00
-1.338844606313781993e+00 -9.804447971575613874e-01 1.340414506601766753e+00
-1.339665879352556876e+00 -9.791768492484845821e-01 1.341236742647580638e+00
-1.342745611060318200e+00 -9.795541906985710812e-01 1.344320085582270119e+00
-1.345618196812654377e+00 -9.797721100212717360e-01 1.347196039666658018e+00
-1.345618196812654377e+00 -9.778944325394371972e-01 1.347196039666658018e+00
-1.338277521235913037e+00 -9.706923455235220155e-01 1.339846756572175224e+00
-1.339659006464954283e+00 -9.698250156805311439e-01 1.341229861700978354e+00
-1.341925065424823815e+00 -9.695929692549569712e-01 1.343498577792674009e+00
-1.340718886164495416e+00 -9.668506169241298798e-01 1.342290984192578973e+00
-1.340074817173794175e+00 -9.645162085604224167e-01 1.341646159980480757e+00
-1.342136879165767294e+00 -9.641275539687048646e-01 1.343710639901838366e+00
-1.342363206870924364e+00 -9.624170016060455968e-01 1.343937232993977604e+00
-1.336701634063625743e+00 -9.564926607712043172e-01 1.338269021548603277e+00
-1.337457411689532361e+00 -9.551671764774497531e-01 1.339025685383041786e+00
-1.341285308291704226e+00 -9.560293003406520329e-01 1.342858070494148626e+00
-1.296359281693933108e+00 -9.221983889122807865e-01 1.297879364607264163e+00
-1.298277615131937734e+00 -9.217514261837446155e-01 1.299799947441653281e+00
-1.301085835831893522e+00 -9.219296703686505889e-01 1.302611461000589665e+00
-1.303074826908867001e+00 -9.215207268442308086e-01 1.304602784325569864e+00
-1.305645448324147750e+00 -9.215167436499919207e-01 1.307176419996038508e+00
-1.332616101217790838e+00 -1.029387532549359774e+00 1.336043717173507117e+00
-1.340733644897726062e+00 -1.033784502460323163e+00 1.344182139951491051e+00
-1.342066239441291664e+00 -1.032936672325646121e+00 1.345518162055564071e+00
-1.339820240842322985e+00 -1.029335813285608747e+00 1.343266386533573442e+00
-1.340483944883267942e+00 -1.027972585395247718e+00 1.343931797684734697e+00
-1.340095392256902107e+00 -1.025802032355850546e+00 1.343542245663884138e+00
-1.343758073107372830e+00 -1.026727999515572254e+00 1.347214347279504176e+00
-1.337828590902127024e+00 -1.020328030405562192e+00 1.341269613879411571e+00
-1.341588274689157423e+00 -1.021320775115095669e+00 1.345038967932413509e+00
-1.340665097525115534e+00 -1.018744600221335173e+00 1.344113416268487793e+00
-1.326469273031668505e+00 -1.006103932583195526e+00 1.329881078757905621e+00
-1.239701444717067558e+00 -9.385597407539608694e-01 1.242890075297437891e+00
-1.233621907365715975e+00 -9.322332083820742410e-01 1.236794900795064267e+00
-1.227768453927887249e+00 -9.260941994872391447e-01 1.230926391715643664e+00
-1.227799740999649947e+00 -9.244021306373547686e-01 1.230957759260744799e+00
-1.231104212208350202e+00 -9.251697587838573211e-01 1.234270729885165618e+00
-1.239670850658374235e+00 -9.298752958796255852e-01 1.242859402547902059e+00
-1.251420372147334259e+00 -9.369399200715090581e-01 1.254639144928903383e+00
-1.243613081150621635e+00 -9.293568268264730259e-01 1.246811772833690934e+00
-1.227316838915866848e+00 -9.154635888720704662e-01 1.230473615106656426e+00
-1.251455619715436285e+00 -9.317201380193353977e-01 1.254674483157118825e+00
-1.302966772124923622e+00 -9.682499582296052454e-01 1.306318127172954702e+00
-1.331388008071415996e+00 -9.875096958199973685e-01 1.334812465254204605e+00
-1.336747340752893587e+00 -9.896168836605191421e-01 1.340185582651471030e+00
-1.334223137060467135e+00 -9.858837932251597325e-01 1.337654886465937443e+00
-1.338054878422541671e+00 -9.868454088698113136e-01 1.341496483432952358e+00
-1.340337617548147842e+00 -9.866560566281611377e-01 1.343785093981725742e+00
-1.336432805376380095e+00 -9.819141596658610416e-01 1.339870238259912583e+00
-1.339050328356747865e+00 -9.819662016014282235e-01 1.342494493759513574e+00
-1.340459252033542326e+00 -9.811263146635428312e-01 1.343907041322639939e+00
-1.338098884029860658e+00 -9.775288883930178807e-01 1.341540602226898526e+00
-1.343601479910744079e+00 -9.796712464649430796e-01 1.347057351310209761e+00
-1.339552183512016992e+00 -9.748469236404786464e-01 1.342997639734198723e+00
-1.341894158102072687e+00 -9.746761759043608420e-01 1.345345638106696606e+00
-1.338204170975358043e+00 -9.701260352872181913e-01 1.341646159980480757e+00
-1.340095637634480807e+00 -9.696246615767279975e-01 1.343542491672597317e+00
-1.343828430709738120e+00 -9.704477184122557443e-01 1.347284885848346159e+00
-1.343985892450401565e+00 -9.686834083024445929e-01 1.347442752595653381e+00
-1.336336565482781458e+00 -9.613027916127437900e-01 1.339773750828110899e+00
-1.336173162959515937e+00 -9.593181426877654960e-01 1.339609928017940987e+00
-1.342404045842603422e+00 -9.619158529595228657e-01 1.345856837327220390e+00
-1.336940409398490015e+00 -9.561326418703181007e-01 1.340379147888073330e+00
-1.346638479625961393e+00 -9.611866318144417498e-01 1.350102162478907131e+00
-1.342132212485277476e+00 -9.560947741835159608e-01 1.345584304788523200e+00
-1.298401449044277234e+00 -9.231279647725655346e-01 1.301741061645087294e+00
-1.299784222561844560e+00 -9.222948229220153671e-01 1.303127391788278189e+00
-1.300004375564860482e+00 -9.206344743798285934e-01 1.303348111045855351e+00
-1.299760289307719807e+00 -9.186453952587200211e-01 1.303103396975536787e+00
-1.336449503052339560e+00 -1.033793785067514293e+00 1.341762599331114858e+00
-1.337405800904559294e+00 -1.032662074614478120e+00 1.342722698974983642e+00
-1.340490936315133830e+00 -1.033168465699002336e+00 1.345820099436674466e+00
-1.338561686190457678e+00 -1.029808457516993014e+00 1.343883179518538196e+00
-1.334302347162486413e+00 -1.024664479507941373e+00 1.339606907356701626e+00
-1.338222102361803278e+00 -1.025802032355850546e+00 1.343542245663884138e+00
-1.340128266490260067e+00 -1.025387932949641812e+00 1.345455987806710052e+00
-1.333881713094083876e+00 -1.018741923468424293e+00 1.339184601044567824e+00
-1.338350121131881121e+00 -1.020281871739333601e+00 1.343670773376536731e+00
-1.336433337721709913e+00 -1.016950543376452742e+00 1.341746369734713840e+00
-1.268876389783242020e+00 -9.637679597840073109e-01 1.273920847063061190e+00
-1.241870552397975169e+00 -9.415180677076672167e-01 1.246807647137130326e+00
-1.235784441790125365e+00 -9.351746697015073106e-01 1.240697341008575316e+00
-1.237770597414296070e+00 -9.349456622562137831e-01 1.242691392655776772e+00
-1.247638033537050717e+00 -9.406531654573536683e-01 1.252598057075616556e+00
-1.253579292325430972e+00 -9.433784171316754730e-01 1.258562935521819748e+00
-1.253583344647101860e+00 -9.416273174475991992e-01 1.258567003953620533e+00
-1.261743161326089879e+00 -9.459909846049630033e-01 1.266759260235851059e+00
-1.261743161326089879e+00 -9.442254172578092852e-01 1.266759260235851059e+00
-1.249679388841584915e+00 -9.334488074468682006e-01 1.254647527851215916e+00
-1.211863548059060269e+00 -9.035064709272108141e-01 1.216681349025629189e+00
-1.211798949131484671e+00 -9.017626291017323270e-01 1.216616493283021683e+00
-1.277474905612003608e+00 -9.488479435141061735e-01 1.282553546557085422e+00
-1.306991477054733286e+00 -9.689425731580910695e-01 1.312187462041274566e+00
-1.316814616066187993e+00 -9.743823613704968301e-01 1.322049653245280121e+00
-1.338735536543623095e+00 -9.887295327450362770e-01 1.344057721019152440e+00
-1.338568836198465339e+00 -9.867333452764053270e-01 1.343890357951623704e+00
-1.339013754888273233e+00 -9.851876268143944237e-01 1.344337045429425226e+00
-1.336257254735115696e+00 -9.812896793125355233e-01 1.341569586724767671e+00
-1.340463934795990797e+00 -9.825031617072200740e-01 1.345792990572157954e+00
-1.336220928357785720e+00 -9.775234334178283246e-01 1.341533115930802600e+00
-1.335945586219021708e+00 -9.754526052100926936e-01 1.341256679160861331e+00
-1.337679652956483389e+00 -9.748469236404786464e-01 1.342997639734198723e+00
-1.336333524776921688e+00 -9.719959775294835236e-01 1.341646159980480757e+00
-1.338187229349049545e+00 -9.714717525305632817e-01 1.343507234012391249e+00
-1.338187294890958112e+00 -9.695992638737473968e-01 1.343507299814863609e+00
-1.336270817538350419e+00 -9.663408032859287511e-01 1.341583203447345607e+00
-1.337947335575421670e+00 -9.656809976223168501e-01 1.343266386533656487e+00
-1.338026708656320007e+00 -9.638659746540420015e-01 1.343346075164689513e+00
-1.338149367455734762e+00 -9.620818504446488895e-01 1.343469221597950014e+00
-1.342504703711989489e+00 -9.633346048442419374e-01 1.347841872628016358e+00
-1.332969759099392970e+00 -9.546274254732884934e-01 1.338269021548603277e+00
-1.340064155963656800e+00 -9.578330277155552297e-01 1.345391622406727938e+00
-1.336624019053296752e+00 -9.535037842063123215e-01 1.341937809125824055e+00
-1.292236354022255007e+00 -9.200308415020035380e-01 1.297373679561433901e+00
-1.295896595588251099e+00 -9.208234575892789708e-01 1.301048472530830891e+00
-1.296342214882397093e+00 -9.193261185959613613e-01 1.301495863398244746e+00
-1.297662244203463544e+00 -9.184464136748580199e-01 1.302821140536649214e+00
-1.334578694503474994e+00 -1.033793785067514293e+00 1.341762599331114858e+00
-1.334946069363956767e+00 -1.032207742329893652e+00 1.342131951734055972e+00
-1.336701127608868278e+00 -1.031691710809739426e+00 1.343896457283536572e+00
-1.338520996136730812e+00 -1.031220691679791246e+00 1.345726121983297219e+00
-1.337229226921048841e+00 -1.028351670760049519e+00 1.344427399301968862e+00
-1.336074430307812477e+00 -1.025591412363818788e+00 1.343266386533028101e+00
-1.340001253380937563e+00 -1.026727999535403058e+00 1.347214347305524917e+00
-1.337910156145148299e+00 -1.023250998314852334e+00 1.345111993900587111e+00
-1.335024058412625614e+00 -1.019172944820002868e+00 1.342210360590043505e+00
-1.334400987734986277e+00 -1.016827429877463995e+00 1.341583935984705711e+00
-1.244094235521349789e+00 -9.462694341260264874e-01 1.250791071475205518e+00
-1.238191254022391163e+00 -9.400445327606529178e-01 1.244856314811947806e+00
-1.253922893217960466e+00 -9.502310328847539678e-01 1.260672635861969981e+00
-1.269665994134944187e+00 -9.603821141809121276e-01 1.276500480330716725e+00
-1.271650967925199938e+00 -9.601016330960386869e-01 1.278496139038132640e+00
-1.279069585769507134e+00 -9.639103983203824999e-01 1.285954690566954328e+00
-1.283034999495158646e+00 -9.651008672166102587e-01 1.289941449721635047e+00
-1.286902893317412033e+00 -9.662070049183967280e-01 1.293830164032943930e+00
-1.285012748466214383e+00 -9.629872344259303718e-01 1.291929844719365450e+00
-1.287245490537835879e+00 -9.628566710895462011e-01 1.294174605420246760e+00
-1.267802124225629878e+00 -9.465365451800077379e-01 1.274626577394429416e+00
-1.215963642988149962e+00 -9.061302270675701820e-01 1.222509054750734014e+00
-1.218520379764324035e+00 -9.063280194050707950e-01 1.225079554187547659e+00
-1.263835514977036167e+00 -9.382621660616308201e-01 1.270638616281424937e+00
-1.279081620343906378e+00 -9.477884240827600948e-01 1.285966789922274645e+00
-1.336736920494823400e+00 -9.886373743246501533e-01 1.343932442839048891e+00
-1.337084217793733432e+00 -9.870206165187299652e-01 1.344281609604894623e+00
-1.334386715302124493e+00 -9.831595148295071418e-01 1.341569586724752572e+00
-1.332736868788017004e+00 -9.800764048260673933e-01 1.339910859250394326e+00
-1.335934500478392017e+00 -9.805558949103985178e-01 1.343125703475205768e+00
-1.336374570372234061e+00 -9.790062785770852205e-01 1.343568142221666317e+00
-1.336556779186953259e+00 -9.772668854302303254e-01 1.343751331848374253e+00
-1.334048779021973274e+00 -9.735637177008231724e-01 1.341229831367101832e+00
-1.336575049711939078e+00 -9.735344405909347465e-01 1.343769700721785254e+00
-1.340228435770780102e+00 -9.743174723290195516e-01 1.347442752595653381e+00
-1.338261270373143574e+00 -9.710121202510956229e-01 1.345464998141668866e+00
-1.340071414254729643e+00 -9.704477184122557443e-01 1.347284885848346159e+00
-1.336153692280256822e+00 -9.657382861822081388e-01 1.343346075164813413e+00
-1.337576030632446455e+00 -9.648920119655884919e-01 1.344776069823369280e+00
-1.338318346679103321e+00 -9.635521543584467663e-01 1.345522381683726065e+00
-1.338316675239940023e+00 -9.616756085182193159e-01 1.345520701247371553e+00
-1.334861092359555190e+00 -9.573220264783020017e-01 1.342046517306862530e+00
-1.334376140263315413e+00 -9.551044127950656382e-01 1.341558954761557843e+00
-1.336849159495357098e+00 -9.550012360043573789e-01 1.344045286010997264e+00
-1.339944772930421468e+00 -9.553350169566299233e-01 1.347157562826342136e+00
-1.292405773849993444e+00 -9.196303197413070452e-01 1.299362666025980717e+00
-1.296241830780867854e+00 -9.205435381691801089e-01 1.303219372071080073e+00
-1.294638801172214970e+00 -9.175909871980315602e-01 1.301607713512937581e+00
-1.334475522572029726e+00 -1.035164957076477821e+00 1.343542245664311352e+00
-1.338036557764851420e+00 -1.036049702963443897e+00 1.347127475321152179e+00
-1.335952544143314435e+00 -1.032561381207100171e+00 1.345029302448203179e+00
-1.332529700701915232e+00 -1.028046001638848184e+00 1.341583203448237116e+00
-1.332164165698205283e+00 -1.025894650001793140e+00 1.341215184918525205e+00
-1.336597865780030370e+00 -1.027433462786559115e+00 1.345679008543447353e+00
-1.336149777782093873e+00 -1.025214086345593412e+00 1.345227876136130929e+00
-1.332691169601643244e+00 -1.020690250516318232e+00 1.341745769403532629e+00
-1.334257180519247576e+00 -1.020017358666660101e+00 1.343322420147128105e+00
-1.336524704325929624e+00 -1.019875382362867011e+00 1.345605350014178025e+00
-1.259450602607448788e+00 -9.592943631955478390e-01 1.268007589730180129e+00
-1.255952306044511690e+00 -9.548673934119075168e-01 1.264485524963409935e+00
-1.273324032824784124e+00 -9.662878839057772451e-01 1.281975279113751975e+00
-1.281236504625546724e+00 -9.704945463300308495e-01 1.289941510005317982e+00
-1.281208097978388194e+00 -9.686751910860228465e-01 1.289912910357089437e+00
-1.283211421316956535e+00 -9.683891822630242840e-01 1.291929844719365450e+00
-1.281208097978388194e+00 -9.650795148013679992e-01 1.289912910357089437e+00
-1.285097902559421579e+00 -9.662062425313655556e-01 1.293829143134386461e+00
-1.287410915466993044e+00 -9.661387488142463287e-01 1.296157871165380504e+00
-1.293084071772185872e+00 -9.685816714279050776e-01 1.301869572154539911e+00
-1.293358339603463802e+00 -9.669722233141601064e-01 1.302145703422379341e+00
-1.265918627001979546e+00 -9.446806902573652298e-01 1.274519559319019280e+00
-1.208337903916975931e+00 -9.000159958502359503e-01 1.216547620012485620e+00
-1.245805776099671469e+00 -9.261753307772194743e-01 1.254270057240542746e+00
-1.277293918186282573e+00 -9.477923648292567727e-01 1.285972136758122497e+00
-1.303732872036627910e+00 -9.655814565681810624e-01 1.312590722733116166e+00
-1.332290631262321279e+00 -9.848626221209266784e-01 1.341342509717772469e+00
-1.332962687669745794e+00 -9.834889609804738919e-01 1.342019132225695133e+00
-1.335134544493301822e+00 -9.832178946348200110e-01 1.344205745126887841e+00
-1.336545834755689333e+00 -9.823817049336484031e-01 1.345626624008770644e+00
-1.336457335594849472e+00 -9.804412907952408940e-01 1.345537523564976023e+00
-1.332485083696256734e+00 -9.756574067965787522e-01 1.341538283304732460e+00
-1.332178722540426241e+00 -9.735637244485928488e-01 1.341229840663165307e+00
-1.334440812550179656e+00 -9.733443363491190992e-01 1.343507299814863609e+00
-1.336597864975912930e+00 -9.730421324808077310e-01 1.345679007733866728e+00
-1.334386157851711330e+00 -9.695595519922584060e-01 1.343452273780234796e+00
-1.335748176693055012e+00 -9.686748185606754991e-01 1.344823546480095944e+00
-1.333074745830176377e+00 -9.648654467085878705e-01 1.342131951734156114e+00
-1.336247262914195044e+00 -9.652866100118092652e-01 1.345326023603871324e+00
-1.338523134322352703e+00 -9.650524034557060871e-01 1.347617357787855408e+00
-1.335106916749057238e+00 -9.607158977764236329e-01 1.344177929673612493e+00
-1.334297480723126261e+00 -9.582611088962116330e-01 1.343362994159542634e+00
-1.336764930220008196e+00 -9.581573756413787057e-01 1.345847208056335953e+00
-1.338218888085536351e+00 -9.573216960092606476e-01 1.347311044434531979e+00
-1.338066442228359021e+00 -9.553350169566299233e-01 1.347157562826342136e+00
-1.292099760039243650e+00 -9.207032102111375460e-01 1.300878572789064824e+00
-1.292712884941659368e+00 -9.193261185959613613e-01 1.301495863398244746e+00
-1.291929261457390510e+00 -9.169559541905565325e-01 1.300706915801978170e+00
-1.334274137626106249e+00 -1.036463692267302950e+00 1.345227876135934642e+00
-1.334497451670293211e+00 -1.034761914416935991e+00 1.345453023479273869e+00
-1.331203422296196814e+00 -1.030337123007077471e+00 1.342131951734055972e+00
-1.328864423357344116e+00 -1.026659430459784916e+00 1.339773750757159876e+00
-1.331030523211785832e+00 -1.026462548249553519e+00 1.341957633232670810e+00
-1.330730855170369820e+00 -1.024361495335854411e+00 1.341655505063104936e+00
-1.332328619774742817e+00 -1.023719211903821869e+00 1.343266386533932266e+00
-1.333991847939213216e+00 -1.023122646225715027e+00 1.344943268988688212e+00
-1.332265778591467331e+00 -1.019926702412923269e+00 1.343203029455257269e+00
-1.330988407897120807e+00 -1.017078483897886798e+00 1.341915172171857185e+00
-1.312918308875612894e+00 -1.001425242693452233e+00 1.323696726469598683e+00
-1.271481433555599727e+00 -9.680326695223627764e-01 1.281919674656524455e+00
-1.275350819011294545e+00 -9.691864618295950029e-01 1.285820825875550799e+00
-1.271578106328753011e+00 -9.645326040410456825e-01 1.282017141065893817e+00
-1.264135945942612915e+00 -9.571111122212018207e-01 1.274513884180527024e+00
-1.264251958540751453e+00 -9.554224099513628499e-01 1.274630849185392156e+00
-1.271319881018405429e+00 -9.589773206407613548e-01 1.281756795851962449e+00
-1.271319881018405429e+00 -9.571908502222798987e-01 1.281756795851962449e+00
-1.275490016776571034e+00 -9.585382613919135597e-01 1.285961166386443866e+00
-1.285607213299719387e+00 -9.643348470689205865e-01 1.296161420148012722e+00
-1.285607213299719387e+00 -9.625282999593871569e-01 1.296161420148012722e+00
-1.269342643060700881e+00 -9.485673978744538770e-01 1.279763325737050206e+00
-1.216986384997819970e+00 -9.077319555154738095e-01 1.226977248385912267e+00
-1.244620852848981496e+00 -9.265951393635158961e-01 1.254838581711089862e+00
-1.285603693215260135e+00 -9.552994958357767796e-01 1.296157871165380504e+00
-1.305314151278626600e+00 -9.681115977978397291e-01 1.316030142455464569e+00
-1.327583262314226298e+00 -9.827623843645192370e-01 1.338482072008077672e+00
-1.329460750101718380e+00 -9.822840508879353560e-01 1.340374973052635754e+00
-1.331236556607925614e+00 -9.817254556379119146e-01 1.342165358062288760e+00
-1.334994577676577476e+00 -9.826208758612700045e-01 1.345954230647086858e+00
-1.334073008908617020e+00 -9.800679047771230223e-01 1.345025096249981456e+00
-1.336099311875105222e+00 -9.796790157658600284e-01 1.347068034173417805e+00
-1.334390940700716177e+00 -9.765512743574280563e-01 1.345345638106696606e+00
-1.330294109382597512e+00 -9.716837366118906694e-01 1.341215173805885730e+00
-1.334509328722275789e+00 -9.728873849878764135e-01 1.345464998036048021e+00
-1.333148122669214342e+00 -9.700216830553005654e-01 1.344092617146614765e+00
-1.331192376238540920e+00 -9.667280442503295435e-01 1.342120814993665867e+00
-1.332034765729922965e+00 -9.654680101786177193e-01 1.342970120091032893e+00
-1.334735428007574498e+00 -9.655498863446728697e-01 1.345692953485967402e+00
-1.331367148930262090e+00 -9.612424181191899786e-01 1.342297022483761371e+00
-1.332840730006981111e+00 -9.604334184123294316e-01 1.343782700940870267e+00
-1.334518349754436395e+00 -9.597670190975761129e-01 1.345474093126473258e+00
-1.336284487793986342e+00 -9.591594417060260724e-01 1.347254730296083780e+00
-1.334435207679126822e+00 -9.559569031595810396e-01 1.345390268495363362e+00
-1.334872086536717850e+00 -9.543940979760693333e-01 1.345830733914839428e+00
-1.292782288157903414e+00 -9.224845062482988078e-01 1.303395398863783861e+00
-1.294350326806712470e+00 -9.217845711128898056e-01 1.304976310343481272e+00
-1.292102253545250212e+00 -9.183679091854387577e-01 1.302709781499344910e+00
-1.332621497593412974e+00 -1.036637162540199775e+00 1.345453023479273869e+00
-1.332201817571702973e+00 -1.034436038762452270e+00 1.345029302448866204e+00
-1.331132295014359590e+00 -1.031732416951235409e+00 1.343949481688766268e+00
-1.328934685866700827e+00 -1.028159036609890942e+00 1.341730712235112088e+00
-1.332743300361690642e+00 -1.029230233991537569e+00 1.345575999060219630e+00
-1.332691346975826585e+00 -1.027314765825621645e+00 1.345523545426372980e+00
-1.328194230112270890e+00 -1.021979112629688657e+00 1.340983126791421176e+00
-1.332751002394404027e+00 -1.023609890915029075e+00 1.345583775254150183e+00
-1.330803298915527844e+00 -1.020241281588532889e+00 1.343617317757233254e+00
-1.325640273205552555e+00 -1.014417697670373375e+00 1.338404578382750287e+00
-1.331137990548177052e+00 -1.016751547031487179e+00 1.343955232063654304e+00
-1.257642665372401547e+00 -9.588445135403765862e-01 1.269752236203302687e+00
-1.240862091316460969e+00 -9.443046416577411950e-01 1.252810085607611423e+00
-1.236810467068357733e+00 -9.394809035041581380e-01 1.248719449140725191e+00
-1.216638178118082836e+00 -9.224460002929987246e-01 1.228352925557202768e+00
-1.204962883594581369e+00 -9.118982704536571227e-01 1.216565212132930451e+00
-1.201093459794294827e+00 -9.072797836360130264e-01 1.212658530482799479e+00
-1.210869947867652563e+00 -9.129608084564918569e-01 1.222529154257864459e+00
-1.225167390199716655e+00 -9.220166250863595092e-01 1.236964263588184787e+00
-1.242616719925992763e+00 -9.333997644100960889e-01 1.254581609158778255e+00
-1.266392873394077689e+00 -9.494773272369013695e-01 1.278586698096719321e+00
-1.273634590813288003e+00 -9.531145582060726040e-01 1.285898144455985381e+00
-1.225053833069159381e+00 -9.150356450379960593e-01 1.236849613040432283e+00
-1.234916897835784733e+00 -9.206649543586603590e-01 1.246807647137130326e+00
-1.289745824608057756e+00 -9.597265328823134656e-01 1.302164509857039354e+00
-1.309824062203006623e+00 -9.728239967229189711e-01 1.322436076484956313e+00
-1.316450302616719359e+00 -9.758929026247905592e-01 1.329126119542966666e+00
-1.331516162576791507e+00 -9.851876268143944237e-01 1.344337045429425226e+00
-1.330915957134307437e+00 -9.828706872319602494e-01 1.343731060737779925e+00
-1.331049332751062186e+00 -9.810961482551546764e-01 1.343865720599672464e+00
-1.330279264314991217e+00 -9.786565904017593409e-01 1.343088237340195779e+00
-1.332370759534067250e+00 -9.783203611931811094e-01 1.345199871117063406e+00
-1.330879852408016317e+00 -9.753528349744260417e-01 1.343694608366841958e+00
-1.329489614535327435e+00 -9.724631398551910610e-01 1.342290984192578973e+00
-1.334659842213223202e+00 -9.743668173947115374e-01 1.347510994881182977e+00
-1.329321068232526715e+00 -9.685986480511236119e-01 1.342120814993665867e+00
-1.330333108690641808e+00 -9.674640349121467198e-01 1.343142600171763013e+00
-1.332423179980007033e+00 -9.671090376536949362e-01 1.345252796308206822e+00
-1.324793040031475133e+00 -9.597066422263478280e-01 1.337549187382595539e+00
-1.335040568722945631e+00 -9.652515052787326022e-01 1.347895387324610894e+00
-1.332170323737456918e+00 -9.613016679939950793e-01 1.344997505367261370e+00
-1.334945067888042569e+00 -9.614254213025539286e-01 1.347798966932701292e+00
-1.331330165898434448e+00 -9.569485433727411561e-01 1.344149257829041488e+00
-1.331124940436933413e+00 -9.549278869091061273e-01 1.343942056295695409e+00
-1.333578371154120923e+00 -9.548113445084164264e-01 1.346419110569769373e+00
-1.285324416416413040e+00 -9.184539339960672288e-01 1.297700528876522874e+00
-1.289087844427722729e+00 -9.193291776545279292e-01 1.301500194127014121e+00
-1.290835933846016248e+00 -9.187594015599993558e-01 1.303265115522476147e+00
-1.326732994118515530e+00 -1.033511427614557165e+00 1.341396127143438033e+00
-1.330214563803858274e+00 -1.034349034894866293e+00 1.344916175346808185e+00
-1.328899299185655858e+00 -1.031453664198437981e+00 1.343586374344762691e+00
-1.321439092666542248e+00 -1.023801131323513136e+00 1.336043717173507117e+00
-1.328841610548379570e+00 -1.027663757614566631e+00 1.343528048129189800e+00
-1.331244721210985693e+00 -1.027646259106564930e+00 1.345957718115695867e+00
-1.329169471095715815e+00 -1.024171255244754608e+00 1.343859532211058250e+00
-1.326436792282737587e+00 -1.020196454925450302e+00 1.341096651667116335e+00
-1.330427936090418095e+00 -1.021391345124402550e+00 1.345131905836740804e+00
-1.327279278476361180e+00 -1.017103705474281305e+00 1.341948449068935956e+00
-1.330323276352487483e+00 -1.017561689974023853e+00 1.345026089393077884e+00
-1.229303736302817196e+00 -9.385597407539608694e-01 1.242890075297437891e+00
-1.193447303724433750e+00 -9.095019815565751342e-01 1.206637355264814193e+00
-1.164152000869378201e+00 -8.855361361722084990e-01 1.177018278956717623e+00
-1.154408478665296389e+00 -8.764977668009711342e-01 1.167167070757908043e+00
-1.142786648541189942e+00 -8.660633782154230076e-01 1.155416795466719604e+00
-1.136778401736328048e+00 -8.599080999048626106e-01 1.149342145156000194e+00
-1.132983501692219841e+00 -8.554409066378423354e-01 1.145505303647852191e+00
-1.136860606423504505e+00 -8.567662209101215565e-01 1.149425258374334513e+00
-1.145048276270795640e+00 -8.613230821458870423e-01 1.157703418842321197e+00
-1.173888886390502373e+00 -8.813632263636994590e-01 1.186862777123549373e+00
-1.227251188828220041e+00 -9.196985748422894513e-01 1.240814842944426344e+00
-1.231118224252458981e+00 -9.208616640806952525e-01 1.244724617077274331e+00
-1.231218213519696514e+00 -9.192014577641627326e-01 1.244825711431920556e+00
-1.281989248711794316e+00 -9.552994958357767796e-01 1.296157871165380504e+00
-1.307280210991309977e+00 -9.723033722072939034e-01 1.321728350684519215e+00
-1.316087318262758377e+00 -9.769991584635987492e-01 1.330632794636414040e+00
-1.329391850237772843e+00 -9.850024548045931416e-01 1.344084369100797982e+00
-1.331089973848560426e+00 -9.843849326780585995e-01 1.345801260476092942e+00
-1.328758968131135587e+00 -9.807886283788356252e-01 1.343444492342968921e+00
-1.332585400428204059e+00 -9.817351683574574439e-01 1.347313214600437403e+00
-1.334036776111063860e+00 -9.809245320324844197e-01 1.348780630974831363e+00
-1.328821089039011971e+00 -9.752168725868050059e-01 1.343507299814863609e+00
-1.329967164851337813e+00 -9.741838221235065154e-01 1.344666042126151595e+00
-1.332557381382682316e+00 -9.742033210654490460e-01 1.347284885886735672e+00
-1.328460376017938316e+00 -9.693360628434600779e-01 1.343142600171737699e+00
-1.328874885514196968e+00 -9.677659054360818747e-01 1.343561690851935220e+00
-1.328848189512746636e+00 -9.658738893895961741e-01 1.343534699804667554e+00
-1.330974538617288871e+00 -9.655438563523291995e-01 1.345684549447687006e+00
-1.329526212517956552e+00 -9.626196509537304769e-01 1.344220216361001530e+00
-1.328046076998784297e+00 -9.596765412175938259e-01 1.342723722294850486e+00
-1.328275339327540605e+00 -9.579704442493020000e-01 1.342955518444683971e+00
-1.329353194374898628e+00 -9.568745220694895304e-01 1.344045286010997264e+00
-1.329353194374898628e+00 -9.550012360043573789e-01 1.344045286010997264e+00
-1.326705842333719687e+00 -9.512298349503318651e-01 1.341368675275479871e+00
-1.333732747665726137e+00 -9.543885717860109974e-01 1.348473242388789295e+00
-1.286903768066355314e+00 -9.190653602099245756e-01 1.301126706084089868e+00
-1.290496403494891142e+00 -9.198125749061705214e-01 1.304759047535941630e+00
-1.326917857912589538e+00 -1.035114637344098254e+00 1.343476935603552302e+00
-1.328869589440279331e+00 -1.034761914417424045e+00 1.345453023479908472e+00
-1.326172917502201676e+00 -1.030790631807146029e+00 1.342722698818066940e+00
-1.327098037502783212e+00 -1.029636949005556579e+00 1.343659363718637367e+00
-1.326826726126708600e+00 -1.027554085136390238e+00 1.343384666551853845e+00
-1.325417278252373654e+00 -1.024592169172523493e+00 1.341957629678536490e+00
-1.328339358249910784e+00 -1.024976535484800388e+00 1.344916175346808185e+00
-1.326919211095961781e+00 -1.022008222161939761e+00 1.343478305673779127e+00
-1.326783752053310339e+00 -1.020031585399164165e+00 1.343341156189780561e+00
-1.322678428691653085e+00 -1.015008900663483260e+00 1.339184601044567824e+00
-1.327163348806406296e+00 -1.016577738762554306e+00 1.343725490065139194e+00
-1.233378135992844626e+00 -9.429998479989328830e-01 1.248769898379982424e+00
-1.180518277922704584e+00 -9.009190602635627210e-01 1.195250383428071439e+00
-1.160530181466860933e+00 -8.840273395609915541e-01 1.175012848440571078e+00
-1.146972216644716491e+00 -8.720810743437280577e-01 1.161285688975757235e+00
-1.137099510058332097e+00 -8.629698978086092209e-01 1.151289777388845303e+00
-1.129450625287184984e+00 -8.555711544728459295e-01 1.143545439476858272e+00
-1.127840757061685739e+00 -8.527600975533753402e-01 1.141915481135863608e+00
-1.129837042886469245e+00 -8.526751074585378065e-01 1.143936679318159566e+00
-1.139158969545155831e+00 -8.581027229897780773e-01 1.153374937599674244e+00
-1.144928844766443188e+00 -8.608333614460274008e-01 1.159216817136440980e+00
-1.153107134190141991e+00 -8.653551221689674833e-01 1.167497166329053870e+00
-1.195698306928746346e+00 -8.956305626027077915e-01 1.210619849389960256e+00
-1.229453981328297862e+00 -9.191800889635098892e-01 1.244796772800187190e+00
-1.282163289772152881e+00 -9.567779573389372239e-01 1.298163859363730577e+00
-1.298735978027645510e+00 -9.673121307247269929e-01 1.314943364062859388e+00
-1.309633204466205791e+00 -9.735803963743367984e-01 1.325976580847872510e+00
-1.326464860501997745e+00 -9.842211828817027941e-01 1.343018285077908214e+00
-1.326716177773414884e+00 -9.825354480002226332e-01 1.343272738626524188e+00
-1.327121917295635889e+00 -9.809631474689429753e-01 1.343683541515878765e+00
-1.326509168173323427e+00 -9.786383070771126347e-01 1.343063145680349679e+00
-1.327006242266885128e+00 -9.771324071594809091e-01 1.343566422937494176e+00
-1.329367813219459071e+00 -9.769953833587255998e-01 1.345957464770004774e+00
-1.329207140110755914e+00 -9.750015750353042687e-01 1.345794786564698198e+00
-1.329139321959300180e+00 -9.730762002264699007e-01 1.345726122086522203e+00
-1.324736569653622187e+00 -9.679834854293056789e-01 1.341268426276203796e+00
-1.326860840722410950e+00 -9.676632743955896343e-01 1.343419206875672955e+00
-1.326437250488069930e+00 -9.654825395501768215e-01 1.342990330508842423e+00
-1.329039032031152479e+00 -9.655008280305799051e-01 1.345624580604857456e+00
-1.327259515820473634e+00 -9.623350950825292349e-01 1.343822857181419250e+00
-1.323536832179655010e+00 -9.577682249017612781e-01 1.340053716853579990e+00
-1.324200808615510816e+00 -9.563800471076495668e-01 1.340725979286433001e+00
-1.330421983994191315e+00 -9.589957395319632649e-01 1.347024790915021697e+00
-1.330421983994191315e+00 -9.571183007310001267e-01 1.347024790915021697e+00
-1.331852582522478290e+00 -9.562680293909460172e-01 1.348473242388789295e+00
-1.283794588077304066e+00 -9.199508259849242808e-01 1.299815515217927375e+00
-1.285613671039168793e+00 -9.194401505467910685e-01 1.301657299160046799e+00
-1.287263183359431906e+00 -9.188033074970093361e-01 1.303327396328498144e+00
-1.323500912339877322e+00 -1.033908674333846811e+00 1.341911714292779445e+00
-1.323712593203655974e+00 -1.032203426286040227e+00 1.342126339782001132e+00
-1.327143778755287995e+00 -1.033003532798551172e+00 1.345605255468962591e+00
-1.327063188940452498e+00 -1.031065458017211167e+00 1.345523544594741105e+00
-1.323546201279673040e+00 -1.026462548249553519e+00 1.341957633232670810e+00
-1.327130669747283331e+00 -1.027367003870633955e+00 1.345591964105700145e+00
-1.323368821747516355e+00 -1.022584731993338103e+00 1.341777786230029967e+00
-1.328701822603903571e+00 -1.024827950798586684e+00 1.347184972772022871e+00
-1.320035248365563074e+00 -1.016278005713969756e+00 1.338397840564719443e+00
-1.317202979479271674e+00 -1.012236066251097633e+00 1.335526172883114260e+00
-1.329405249636356645e+00 -1.019734535866686054e+00 1.347898184955103273e+00
-1.278153788928310997e+00 -9.786153241469032205e-01 1.295933781411812813e+00
-1.192810288711604771e+00 -9.115866556091375417e-01 1.209403094797418809e+00
-1.168521366507673243e+00 -8.913729235233018855e-01 1.184776297090586628e+00
-1.147298909431480496e+00 -8.735626708317529854e-01 1.163258621136536997e+00
-1.135494276197414276e+00 -8.629698978086092209e-01 1.151289777388845303e+00
-1.129740245007256894e+00 -8.570003648082989978e-01 1.145455703693476934e+00
-1.127868552427474302e+00 -8.539866794696899799e-01 1.143557974591103532e+00
-1.135608193904797947e+00 -8.582421023870488996e-01 1.151405279769371459e+00
-1.141387645470601564e+00 -8.609969964815390453e-01 1.157265127455179288e+00
-1.151040589356487898e+00 -8.666520213602143530e-01 1.167052350385748172e+00
-1.156864511177277732e+00 -8.694021926656076982e-01 1.172957286938172805e+00
-1.182269284580501623e+00 -8.868235562772727176e-01 1.198715458096868192e+00
-1.241286680920266061e+00 -9.293385424097714287e-01 1.258553826742474291e+00
-1.284273955664428701e+00 -9.597077933032488462e-01 1.302139083848742551e+00
-1.294117005654918717e+00 -9.652344852682899212e-01 1.312119057389717236e+00
-1.319592760559244793e+00 -9.823711284175510317e-01 1.337949197450692074e+00
-1.327101629832804441e+00 -9.860857071067069546e-01 1.345562520226169845e+00
-1.325474441959633376e+00 -9.830035449294782790e-01 1.343912697057930927e+00
-1.322818596539520497e+00 -9.791645583063625091e-01 1.341219907013457613e+00
-1.323507683860470463e+00 -9.778043062233786609e-01 1.341918580009850537e+00
-1.327076976121589036e+00 -9.785659248985479897e-01 1.345537523564987126e+00
-1.327057880596624440e+00 -9.766765052436343630e-01 1.345518162408223528e+00
-1.324915594023016174e+00 -9.732275322944279328e-01 1.343346075164690845e+00
-1.324836998706509172e+00 -9.712975990043601904e-01 1.343266386533632284e+00
-1.323707144214482989e+00 -9.685986480511236119e-01 1.342120814993665867e+00
-1.324987722379281863e+00 -9.676632743955896343e-01 1.343419206875672955e+00
-1.325360463079484630e+00 -9.660625536917694101e-01 1.343797132653685056e+00
-1.325467154464169628e+00 -9.642672306620418965e-01 1.343905308188426462e+00
-1.317882799131902649e+00 -9.568872969922768146e-01 1.336215449291589863e+00
-1.324301779729379458e+00 -9.596765412175938259e-01 1.342723722294850486e+00
-1.324701166968567989e+00 -9.580939550817442196e-01 1.343128665283411349e+00
-1.327531857119972791e+00 -9.582652512166581760e-01 1.345998732268848919e+00
-1.321723814117607310e+00 -9.522049739158547910e-01 1.340109895420061870e+00
-1.281393002840660156e+00 -9.213387779247342868e-01 1.299218055002827166e+00
-1.281245896796213923e+00 -9.194224072403093251e-01 1.299068902612794840e+00
-1.284944933789283983e+00 -9.202610104252268997e-01 1.302819395737750297e+00
-1.278330186725189055e+00 -9.137171346696968399e-01 1.296112633022566518e+00
-1.322931135625716959e+00 -1.034926631829652610e+00 1.343232922947068086e+00
-1.326964673411486606e+00 -1.036204199230416512e+00 1.347328359666254638e+00
-1.325732028125634177e+00 -1.033365529920813319e+00 1.346076798125608542e+00
-1.323255528915922241e+00 -1.029562565451192624e+00 1.343562294397820711e+00
-1.321186307917269431e+00 -1.026082917804911121e+00 1.341461318999030095e+00
-1.325254521946631181e+00 -1.027367003870633955e+00 1.345591964105700145e+00
-1.321780277944550663e+00 -1.022803166886525839e+00 1.342064404129013511e+00
-1.323092562375783654e+00 -1.021946239834084835e+00 1.343396826962549140e+00
-1.325726361519602658e+00 -1.022104455979261139e+00 1.346071044559472130e+00
-1.324898037162583142e+00 -1.019590899707014664e+00 1.345230008682951173e+00
-1.323800566747940444e+00 -1.016872944213836671e+00 1.344115696415887351e+00
-1.325294266812888422e+00 -1.016144826865724715e+00 1.345632318899262048e+00
-1.191124027930526186e+00 -9.115866556091375417e-01 1.209403094797418809e+00
-1.172665030167412636e+00 -8.958001795504395570e-01 1.190660824053074274e+00
-1.147597370992519350e+00 -8.750269363639175957e-01 1.165208474948744799e+00
-1.141811675489987632e+00 -8.689995829608309075e-01 1.159333991786420714e+00
-1.137730089881271001e+00 -8.642831416651718390e-01 1.155189769899268803e+00
-1.133933628148467321e+00 -8.597944450107934955e-01 1.151335047417588964e+00
-1.133987193396472470e+00 -8.582302916702907458e-01 1.151389434681376667e+00
-1.145526187529265938e+00 -8.653421971625444575e-01 1.163105506969243974e+00
-1.153460565797481241e+00 -8.697035811087812096e-01 1.171161646722838734e+00
-1.173298282612917687e+00 -8.830007218024842341e-01 1.191303794431828544e+00
-1.192772691589814471e+00 -8.959688115266365438e-01 1.211077058956539609e+00
-1.258635392126577823e+00 -9.436613857897289126e-01 1.277950492782964798e+00
-1.282458393857079937e+00 -9.597077933032488462e-01 1.302139083848742551e+00
-1.288315283037306358e+00 -9.622675382388697907e-01 1.308085853231573337e+00
-1.325529499593116611e+00 -9.881877235864255926e-01 1.345871161577047781e+00
-1.325267799274904013e+00 -9.861171643533300779e-01 1.345605445188716942e+00
-1.323080586356152777e+00 -9.826173180082964365e-01 1.343384667158141310e+00
-1.321117723458080651e+00 -9.792899635552818616e-01 1.341391682038266087e+00
-1.321265707333355355e+00 -9.775298609059634991e-01 1.341541936883723585e+00
-1.323523257756704874e+00 -9.773271031738139936e-01 1.343834131822821298e+00
-1.325330276346875502e+00 -9.767859079619488627e-01 1.345668881037901610e+00
-1.323584641222754321e+00 -9.736262732006218945e-01 1.343896457283536572e+00
-1.325385703132422544e+00 -9.730755034025981853e-01 1.345725158406507749e+00
-1.321099318635387654e+00 -9.680589517393649590e-01 1.341372994773966099e+00
-1.324178221810678124e+00 -9.684411539951822689e-01 1.344499146997800709e+00
-1.325748074139524890e+00 -9.677131293128485856e-01 1.346093090382672885e+00
-1.322473885436107777e+00 -9.634516697169029920e-01 1.342768655766285235e+00
-1.319799980443473020e+00 -9.596359476492296592e-01 1.340053716853579990e+00
-1.325026504679260420e+00 -9.615610714799482928e-01 1.345360447670501891e+00
-1.322045948075893040e+00 -9.575272043966520652e-01 1.342334151251484808e+00
-1.323629551045844899e+00 -9.568010290960600184e-01 1.343942056295695409e+00
-1.318808652597191378e+00 -9.514498666692748907e-01 1.339047176025640384e+00
-1.276523027548626343e+00 -9.191365720046297261e-01 1.296112633022566518e+00
-1.281897147822581351e+00 -9.211920226378741416e-01 1.301569224896065302e+00
-1.285200252856459002e+00 -9.217469285982132776e-01 1.304923019594802946e+00
-1.281754449957096531e+00 -9.174617128638666852e-01 1.301424337179847956e+00
-1.319758879422679776e+00 -1.033908674333893218e+00 1.341911714292839619e+00
-1.320866831221553461e+00 -1.032904769295230452e+00 1.343038263635270013e+00
-1.320052595642160709e+00 -1.030397316536387553e+00 1.342210360690863080e+00
-1.319946759611081877e+00 -1.028444125176155355e+00 1.342102748147304458e+00
-1.319249385515199657e+00 -1.026031171802451070e+00 1.341393668266805284e+00
-1.323305790797518977e+00 -1.027310655861103816e+00 1.345518162408223528e+00
-1.321441831830982849e+00 -1.023990927174191379e+00 1.343622915927101147e+00
-1.321219475236783181e+00 -1.021946239834084835e+00 1.343396826962549140e+00
-1.321278007153526612e+00 -1.020119048304006570e+00 1.343456341367765594e+00
-1.321414536115641747e+00 -1.018351799516149070e+00 1.343595162039070923e+00
-1.321926477295402247e+00 -1.016872944214009422e+00 1.344115696416115613e+00
-1.325107170199541384e+00 -1.017441754759770056e+00 1.347349778894499472e+00
-1.233328551367928849e+00 -9.452246098618215520e-01 1.254030608512684664e+00
-1.177444549600381141e+00 -9.007264081639650977e-01 1.197208564893445182e+00
-1.157521997301290462e+00 -8.838455752026627144e-01 1.176951602257621632e+00
-1.144013863243368512e+00 -8.719099569072880085e-01 1.163216727188250532e+00
