-1.325471414731641984e+00 -9.364689694987027302e-01 1.305162696650989274e+00
-1.325471414731641984e+00 -9.346498767063586843e-01 1.305162696650989274e+00
-1.323435426126729375e+00 -9.313979104282100741e-01 1.303157903225491854e+00
-1.322926811108776635e+00 -9.292243604438240601e-01 1.302657081147391649e+00
-1.328932248067327127e+00 -9.316187394620804030e-01 1.308570503502845650e+00
-1.327381005022065130e+00 -9.287095610883032704e-01 1.307043028422196773e+00
-1.325292993004451025e+00 -9.254298238511355912e-01 1.304987008680646321e+00
-1.327177607915165591e+00 -9.249243843778004459e-01 1.306842747741993715e+00
-1.328470765355800998e+00 -9.240023906038556945e-01 1.308116091575482365e+00
-1.328885571576403191e+00 -9.224671258244062644e-01 1.308524542183659767e+00
-1.362730036718774684e+00 -1.035282838390425120e+00 1.343695244009338374e+00
-1.364386499275149323e+00 -1.034666198789008229e+00 1.345328568878466191e+00
-1.364368119703055937e+00 -1.032777211456610944e+00 1.345310446034657437e+00
-1.364368119703055937e+00 -1.030902162053094928e+00 1.345310446034657437e+00
-1.364368119703055937e+00 -1.029027112649578912e+00 1.345310446034657437e+00
-1.364403816492431920e+00 -1.027178937247536172e+00 1.345345644206575875e+00
-1.364368121457758098e+00 -1.025277015161146998e+00 1.345310447764849648e+00
-1.362575120491762659e+00 -1.022057049611004631e+00 1.343542491672597317e+00
-1.364230755080567903e+00 -1.021424067675613445e+00 1.345175000139315680e+00
-1.364230740366399353e+00 -1.019549196055586027e+00 1.345174985630676723e+00
-1.362268656746397744e+00 -1.016210681185484299e+00 1.343240308653208093e+00
-1.364220656773446283e+00 -1.015791966655519962e+00 1.345165042886678597e+00
-1.364756338370143540e+00 -1.014315249596121182e+00 1.345693242012250490e+00
-1.362162750429240621e+00 -1.010515622615779652e+00 1.343135881649443419e+00
-1.364293958551863195e+00 -1.010221704346064842e+00 1.345237320776196288e+00
-1.364262245461117518e+00 -1.008323317784350470e+00 1.345206050658080743e+00
-1.358253824075922767e+00 -1.002015859810441833e+00 1.339281555694478154e+00
-1.362192918291495580e+00 -1.003049762430055170e+00 1.343165628123023536e+00
-1.360685250464951590e+00 -1.000069604284055558e+00 1.341679019599334666e+00
-1.362507053220266995e+00 -9.995360919715267078e-01 1.343475375173718733e+00
-1.360292765944481896e+00 -9.960422406846234367e-01 1.341292017354361432e+00
-1.364559687275460620e+00 -9.972912803478040100e-01 1.345499337765969416e+00
-1.360539743336807161e+00 -9.924835079039542318e-01 1.341535544933928348e+00
-1.362411117666122662e+00 -9.919762739921483830e-01 1.343380779660035218e+00
-1.361861798654294908e+00 -9.897047079391734226e-01 1.342839133608544344e+00
-1.360310923651038895e+00 -9.867081682160353528e-01 1.341309921431680818e+00
-1.364089513789736197e+00 -9.875743205008700176e-01 1.345035731725444661e+00
-1.360497450979260448e+00 -9.831040068273674271e-01 1.341493843321604595e+00
-1.362435749885827274e+00 -9.826322400465562490e-01 1.343405067813649545e+00
-1.363824090097563779e+00 -9.817592536687299587e-01 1.344774015506377429e+00
-1.364517131831067598e+00 -9.803828908966445432e-01 1.345457376741630906e+00
-1.358586142839089961e+00 -9.742544705957633111e-01 1.339609232585374343e+00
-1.366184847689477344e+00 -9.778260247745971245e-01 1.347101797725188232e+00
-1.366184442765111084e+00 -9.759481893821084775e-01 1.347101398456858945e+00
-1.363621706551437329e+00 -9.722434482732538186e-01 1.344574458880289702e+00
-1.364741903296831538e+00 -9.711665699915220662e-01 1.345679008569944601e+00
-1.358899780935963530e+00 -9.651417119636663822e-01 1.339918489743985086e+00
-1.366422308560532928e+00 -9.686066214177341260e-01 1.347335941711508278e+00
-1.322144750304310223e+00 -9.354028636523172846e-01 1.303676858223124846e+00
-1.323580002542925182e+00 -9.345992944744332398e-01 1.305092062669358732e+00
-1.325536380934071667e+00 -9.341590390188995174e-01 1.307021114109360616e+00
-1.322936146745461228e+00 -9.305084394424958383e-01 1.304457200334509626e+00
-1.325596835219251313e+00 -9.305581114446946911e-01 1.307080723961119073e+00
-1.323670907565247523e+00 -9.273870067441257747e-01 1.305181697918351258e+00
-1.324826084519810099e+00 -9.263756371042272120e-01 1.306320739209003712e+00
-1.321475828479702352e+00 -9.222168907526999693e-01 1.303017279986701915e+00
-1.325071798267128287e+00 -9.229053617363035533e-01 1.306563020794323515e+00
-1.326754706911189130e+00 -9.222541411941412859e-01 1.308222422348700231e+00
-1.360936991135881069e+00 -1.035344047201402384e+00 1.343774687022543990e+00
-1.360855889738602276e+00 -1.033409551341951449e+00 1.343694608366841958e+00
-1.361275224992572142e+00 -1.031854612624209633e+00 1.344108655529444585e+00
-1.360931941151522162e+00 -1.029721499493835957e+00 1.343769700721785254e+00
-1.360931939510677369e+00 -1.027848596291152328e+00 1.343769699101632797e+00
-1.361275224992572142e+00 -1.026234489461768540e+00 1.344108655529444585e+00
-1.358528313755655859e+00 -1.022294061324982462e+00 1.341396384636884820e+00
-1.358528313755655859e+00 -1.020424467211367148e+00 1.341396384636884820e+00
-1.360657355518278600e+00 -1.020151119447857413e+00 1.343498577792674009e+00
-1.360879664756625473e+00 -1.018444965495049814e+00 1.343718083566363353e+00
-1.362309479937858114e+00 -1.017640202188229370e+00 1.345129867844530036e+00
-1.358152808667589584e+00 -1.012666106595246474e+00 1.341025614913173625e+00
-1.363091538871967545e+00 -1.014472649389815739e+00 1.345902064504816975e+00
-1.361031718785828959e+00 -1.011066601448494140e+00 1.343868220094971422e+00
-1.359204216828993061e+00 -1.007838484855114736e+00 1.342063764131120607e+00
-1.360992030763487959e+00 -1.007291149179338818e+00 1.343829032564507475e+00
-1.362911047754813643e+00 -1.006835817598815241e+00 1.345723849498506208e+00
-1.359511262736354809e+00 -1.002453316293915764e+00 1.342366937989097897e+00
-1.361124485969126940e+00 -1.001769680490181003e+00 1.343959817423513670e+00
-1.363049465682428352e+00 -1.001310624104603475e+00 1.345860521885670513e+00
-1.361126505991475222e+00 -9.980248277564727211e-01 1.343961811972061104e+00
-1.359096070506365272e+00 -9.946656670808017298e-01 1.341956981604237820e+00
-1.360562606662518936e+00 -9.938665699718570723e-01 1.343405023781854002e+00
-1.360569623198566669e+00 -9.919992920807231274e-01 1.343411951834800444e+00
-1.358669251368030295e+00 -9.887439317626506297e-01 1.341535544933938562e+00
-1.362431027193357069e+00 -9.896065226669684689e-01 1.345249882309770051e+00
-1.358870993014243522e+00 -9.851506137338496005e-01 1.341734742486261345e+00
-1.358689996192621985e+00 -9.831495785286196165e-01 1.341556028152746327e+00
-1.362373229538256680e+00 -9.839398847852723895e-01 1.345192813520840858e+00
-1.359953297087263202e+00 -9.803205941231247778e-01 1.342803397998204806e+00
-1.362856982795213723e+00 -9.805381610624340771e-01 1.345670466333349857e+00
-1.360548936482364413e+00 -9.770052102670672145e-01 1.343391525991597391e+00
-1.360879664756625473e+00 -9.753698750088670710e-01 1.343718083566363353e+00
-1.364306351136634010e+00 -9.759483043837127170e-01 1.347101557193586485e+00
-1.358282859228276740e+00 -9.697701795230126987e-01 1.341154025451370968e+00
-1.358675210934862765e+00 -9.681805097225606449e-01 1.341541429346741809e+00
-1.358344687546567231e+00 -9.660756401314939401e-01 1.341215074074195712e+00
-1.365138641800407004e+00 -9.690289137368919281e-01 1.347923352128626018e+00
-1.365147917184879267e+00 -9.671567938176386381e-01 1.347932510544443296e+00
-1.321588982732939233e+00 -9.344781417330348949e-01 1.304922882698750453e+00
-1.319842920062649805e+00 -9.314271682121786355e-01 1.303198839018865129e+00
-1.321856666962051063e+00 -9.310291638572218975e-01 1.305187191254942647e+00
-1.323061251947465822e+00 -9.300568098670984885e-01 1.306376585637129883e+00
-1.323233375696860614e+00 -9.283567841291798795e-01 1.306546538793652568e+00
-1.323589246882133974e+00 -9.267849456722259127e-01 1.306897922210905394e+00
-1.325204153126443796e+00 -9.260919787746967335e-01 1.308492463432984421e+00
-1.321557910026235350e+00 -9.217251601328123600e-01 1.304892201839167765e+00
-1.323554035749972657e+00 -9.212959021251019287e-01 1.306863155114112551e+00
-1.359401145356859519e+00 -1.035601361399170584e+00 1.344108655529444585e+00
-1.360832132210492373e+00 -1.034816150843755889e+00 1.345523544594741105e+00
-1.361106477352762578e+00 -1.033149046347499267e+00 1.345794803510173887e+00
-1.360607956843653543e+00 -1.030895606444915735e+00 1.345301891073296119e+00
-1.357518051319190011e+00 -1.026683689833280066e+00 1.342246745228829807e+00
-1.355521168061672110e+00 -1.023305430197510857e+00 1.340272325772380757e+00
-1.354838200011996729e+00 -1.020922760032840992e+00 1.339597040724877175e+00
-1.357502187653526704e+00 -1.021059419857174300e+00 1.342231060020383948e+00
-1.352656272477978261e+00 -1.015550434889116671e+00 1.337439658634808293e+00
-1.358712874026985373e+00 -1.018225198454047353e+00 1.343428126860628735e+00
-1.360234873465044236e+00 -1.017491267958918977e+00 1.344933004670532783e+00
-1.360234873465044236e+00 -1.015616744620748468e+00 1.344933004670532783e+00
-1.360731422958431969e+00 -1.014112284715168455e+00 1.345423968264495507e+00
-1.359226120062282162e+00 -1.011117294463833360e+00 1.343935599169898687e+00
-1.359299511582474196e+00 -1.009298655493684027e+00 1.344008165077224426e+00
-1.361063994202845517e+00 -1.008733142262406179e+00 1.345752798271534489e+00
-1.357017138739340600e+00 -1.003863784111238555e+00 1.341751467630647232e+00
-1.359276255449398674e+00 -1.003661780659175218e+00 1.343985170562420839e+00
-1.359276255449394011e+00 -1.001788578380972572e+00 1.343985170562416398e+00
-1.355450525424817476e+00 -9.971010796997750170e-01 1.340202477825018113e+00
-1.359074265652659097e+00 -9.978938637698551162e-01 1.343785453036028033e+00
-1.354562352094454969e+00 -9.927143064345310686e-01 1.339324295939539944e+00
-1.361039039683681784e+00 -9.955852267270681732e-01 1.345728124476520238e+00
-1.355260957564166535e+00 -9.894909537741111150e-01 1.340015042494996811e+00
-1.357184130166231073e+00 -9.890247641297933434e-01 1.341916580498949019e+00
-1.358538958145187880e+00 -9.881398856713131673e-01 1.343256167433599657e+00
-1.357000223305948605e+00 -9.851506137338496005e-01 1.341734742486261345e+00
-1.364314505757733276e+00 -9.885804673164289014e-01 1.348966743419915293e+00
-1.364314505757733276e+00 -9.867003218860058711e-01 1.348966743419915293e+00
-1.361121648192493039e+00 -9.825154362087207272e-01 1.345809803686584649e+00
-1.357094370162681418e+00 -9.777381803698634855e-01 1.341827830244395114e+00
-1.358838996991535542e+00 -9.771225221927728466e-01 1.343552831013550719e+00
-1.358316047320669240e+00 -9.748745972159664763e-01 1.343035764229093099e+00
-1.358316047320669240e+00 -9.730027181890541499e-01 1.343035764229093099e+00
-1.356412916134851931e+00 -9.697701916242110753e-01 1.341154042186852413e+00
-1.360791533930683306e+00 -9.710254029172193935e-01 1.345483403022492475e+00
-1.358472391223114029e+00 -9.674984285901738756e-01 1.343190349351544244e+00
-1.361280188047249817e+00 -9.676221660227254384e-01 1.345966560058133199e+00
-1.361021623904132394e+00 -9.655627664821168077e-01 1.345710904614586756e+00
-1.314268793237977739e+00 -9.305832744936017864e-01 1.299484016706246470e+00
-1.317431819782208580e+00 -9.310073551891374644e-01 1.302611461000589665e+00
-1.320047683262384197e+00 -9.310368009458724892e-01 1.305197897504190463e+00
-1.321354817962195671e+00 -9.301377869486915362e-01 1.306490327681964159e+00
-1.323331698812629353e+00 -9.297056999178203718e-01 1.308444969747033948e+00
-1.317581180229109528e+00 -9.238499345716972844e-01 1.302759141227400663e+00
-1.322244329707819466e+00 -9.252974315102463487e-01 1.307369832926293052e+00
-1.319834395067944310e+00 -9.217921280026640796e-01 1.304987008680646321e+00
-1.321711247653560184e+00 -9.212815155933270495e-01 1.306842747741993715e+00
-1.355354569491152850e+00 -1.033944053703267363e+00 1.341957633232670810e+00
-1.359102867119524660e+00 -1.034927926260496012e+00 1.345668880995615879e+00
-1.355530628236714330e+00 -1.030337123007136757e+00 1.342131951734133022e+00
-1.356676388245541043e+00 -1.029335813285883861e+00 1.343266386533932266e+00
-1.361083015571683541e+00 -1.030800922497658423e+00 1.347629456766800349e+00
-1.356894364983251000e+00 -1.025756193790815063e+00 1.343482208691190172e+00
-1.361083015571683541e+00 -1.027044359369022608e+00 1.347629456766800349e+00
-1.356528510824980271e+00 -1.021735630349184021e+00 1.343119970800535912e+00
-1.354715756959268713e+00 -1.018500771526208215e+00 1.341325135012158443e+00
-1.356606589387451933e+00 -1.018050230749953045e+00 1.343197277599257777e+00
-1.352315927385473904e+00 -1.012964168408845067e+00 1.338949026436953238e+00
-1.359060188276315140e+00 -1.016140526409472278e+00 1.345626624009354400e+00
-1.358597315097790137e+00 -1.013919594613237551e+00 1.345168326078228116e+00
-1.355392886564776411e+00 -1.009657704088938956e+00 1.341995571563045608e+00
-1.359414179050521643e+00 -1.010777262058479842e+00 1.345977115778986821e+00
-1.352082704487399312e+00 -1.003460164635945562e+00 1.338718108819260566e+00
-1.357473952199746092e+00 -1.005588025824905474e+00 1.344056067006060395e+00
-1.353805438379492632e+00 -1.001002229710516112e+00 1.340423814432066374e+00
-1.358564992230856250e+00 -1.002646631798359111e+00 1.345136322705098753e+00
-1.351493763254786540e+00 -9.955628827287495985e-01 1.338134988947589532e+00
-1.348138070378533726e+00 -9.912305311471262259e-01 1.334812465254204605e+00
-1.348198415817957851e+00 -9.894143997295800075e-01 1.334872214212070585e+00
-1.355740406055697234e+00 -9.930783985790325730e-01 1.342339656014476912e+00
-1.359376053258129158e+00 -9.938655802968341391e-01 1.345939366839133067e+00
-1.357122277124573229e+00 -9.903449860940369831e-01 1.343707868046047249e+00
-1.355143615171135130e+00 -9.870309941484272098e-01 1.341748764080359368e+00
-1.358784351780034427e+00 -9.878076478481536693e-01 1.345353514005492412e+00
-1.358679436873904800e+00 -9.858564122691418907e-01 1.345249636125644743e+00
-1.354908838675517480e+00 -9.812507088067774497e-01 1.341516308221582854e+00
-1.356690868859487864e+00 -9.806690684604917330e-01 1.343280724014955574e+00
-1.352741510393983271e+00 -9.759475477770811480e-01 1.339370402790933889e+00
-1.358889251391304454e+00 -9.785076367059695190e-01 1.345457376741661770e+00
-1.356584931849595055e+00 -9.749762703031901179e-01 1.343175834134279656e+00
-1.356443463608466349e+00 -9.730027181890541499e-01 1.343035764229093099e+00
-1.358455247459643855e+00 -9.725711537731240863e-01 1.345027662700734705e+00
-1.356404958511818748e+00 -9.692314459697386475e-01 1.342997639734198723e+00
-1.356793946582300237e+00 -9.676370382278960403e-01 1.343382782871034964e+00
-1.358759171697689450e+00 -9.671635209562511326e-01 1.345328582814445673e+00
-1.357612891244959208e+00 -9.644741067649343913e-01 1.344193632715044995e+00
-1.310857006861775531e+00 -9.294488640530848000e-01 1.297899904594798315e+00
-1.314476407278620140e+00 -9.302011955542826005e-01 1.301483529224428226e+00
-1.318227856576331014e+00 -9.310368009458724892e-01 1.305197897504190463e+00
-1.320082486029724222e+00 -9.305249857656263668e-01 1.307034194963041740e+00
-1.317464669947178590e+00 -9.268616008428239850e-01 1.304442254556118952e+00
-1.315686983175007096e+00 -9.237953287150632020e-01 1.302682139242302695e+00
-1.317965562110561262e+00 -9.235764282822047644e-01 1.304938195675298118e+00
-1.318014862422442146e+00 -9.217921280026640796e-01 1.304987008680646321e+00
-1.321114466514389463e+00 -9.221368011620770799e-01 1.308055974886846995e+00
-1.357353613447412899e+00 -1.036900493278327451e+00 1.345794800863484797e+00
-1.351280849573315512e+00 -1.030394095579293845e+00 1.339773750808683994e+00
-1.356856470134783166e+00 -1.032770643924466158e+00 1.345301891072850475e+00
-1.354539326043062930e+00 -1.029135115400583445e+00 1.343004479078957036e+00
-1.356529963738748457e+00 -1.028772951176940342e+00 1.344978165106470946e+00
-1.355053728502441546e+00 -1.025780849182101884e+00 1.343514501042669895e+00
-1.355974467496361191e+00 -1.024604033475938758e+00 1.344427399301968862e+00
-1.354722677105680839e+00 -1.021786064419641704e+00 1.343186268779414938e+00
-1.353063710414735610e+00 -1.018665009070782279e+00 1.341541429346741809e+00
-1.357141519744944569e+00 -1.019859589570944358e+00 1.345584513286798956e+00
-1.353532048832225332e+00 -1.015276714517678203e+00 1.342005779536005639e+00
-1.353580710615751581e+00 -1.013442704731770228e+00 1.342054026930510346e+00
-1.355715443128856501e+00 -1.013167544804960407e+00 1.344170580707586993e+00
-1.355734624458424298e+00 -1.011308392394812072e+00 1.344189598694757182e+00
-1.355499538681615768e+00 -1.009259868141725525e+00 1.343956514837277849e+00
-1.357375690767844922e+00 -1.008781033588222575e+00 1.345816690180137609e+00
-1.357442136579352976e+00 -1.006954568296637209e+00 1.345882570159223857e+00
-1.355327007658386762e+00 -1.003512635525315888e+00 1.343785453036028033e+00
-1.354352998662132324e+00 -1.000919880831969699e+00 1.342819738405612640e+00
-1.354836249137230775e+00 -9.994047761092513804e-01 1.343298873665915494e+00
-1.354196912740298853e+00 -9.970618027411402018e-01 1.342664981664251744e+00
-1.350188371646977137e+00 -9.922445899072458442e-01 1.338690576093739759e+00
-1.350600014847281427e+00 -9.906807121029307384e-01 1.339098713865129575e+00
-1.351245089925259046e+00 -9.892865990002747134e-01 1.339738295678967850e+00
-1.355635185934302323e+00 -9.906273686791630118e-01 1.344091006959012846e+00
-1.353487927747931252e+00 -9.871878820828173806e-01 1.341962034173512563e+00
-1.355666543708396787e+00 -9.869034970567135412e-01 1.344122097699792961e+00
-1.353433615301509407e+00 -9.834076535527097596e-01 1.341908184235447443e+00
-1.360552799302385818e+00 -9.867003218860058711e-01 1.348966743419915293e+00
-1.358584565492871654e+00 -9.833954935115726270e-01 1.347015270493858718e+00
-1.358755610161423322e+00 -9.816416402895106197e-01 1.347184858597777701e+00
-1.353170870346662946e+00 -9.757369651020639800e-01 1.341647676737119488e+00
-1.358671835892513169e+00 -9.778260247745971245e-01 1.347101797725188232e+00
-1.354712152839076200e+00 -9.731041960514558165e-01 1.343175834134279656e+00
-1.354912386822414883e+00 -9.713756753037531277e-01 1.343374362985614745e+00
-1.356900592904785263e+00 -9.709259789982264133e-01 1.345345638106696606e+00
-1.357141519744944569e+00 -9.692229420563885922e-01 1.345584513286798956e+00
-1.353063710414735610e+00 -9.644409171782479806e-01 1.341541429346741809e+00
-1.355514429557118650e+00 -9.643145653971028075e-01 1.343971278906591627e+00
-1.359509683569015914e+00 -9.652780898669439669e-01 1.347932510544443296e+00
-1.308808931091793193e+00 -9.274709373054096373e-01 1.297663510331289682e+00
-1.311878475876907757e+00 -9.278332490208122119e-01 1.300706915801978170e+00
-1.318254187028957025e+00 -9.305208126548943914e-01 1.307028333327395764e+00
-1.315626439044645490e+00 -9.268478929821547529e-01 1.304422962449659495e+00
-1.313814637467553892e+00 -9.237559357779328018e-01 1.302626589626476594e+00
-1.313814637467553892e+00 -9.219403777280548162e-01 1.302626589626476594e+00
-1.316147800007684499e+00 -9.217588407191171784e-01 1.304939883660521494e+00
-1.318237025975963705e+00 -9.214003524184114502e-01 1.307011318412736101e+00
-1.353173157978180718e+00 -1.035137981493630122e+00 1.343507234012391249e+00
-1.351436348041153757e+00 -1.031939239841373590e+00 1.341782830375840563e+00
-1.353357946245189680e+00 -1.031533755409853592e+00 1.343690702308391272e+00
-1.355145007224243914e+00 -1.031020594191084383e+00 1.345464998036048021e+00
-1.354026149825784620e+00 -1.028295629265007616e+00 1.344354132808049940e+00
-1.355387674878093973e+00 -1.027454019208381641e+00 1.345705932277527994e+00
-1.351948083790549981e+00 -1.022975790238956906e+00 1.342290910718081376e+00
-1.350860516060949923e+00 -1.020283526704125254e+00 1.341211111652026000e+00
-1.356684981543115009e+00 -1.022805257275491320e+00 1.346993972081533819e+00
-1.352695934814031942e+00 -1.017926037864994360e+00 1.343033419726693989e+00
-1.350975359542802234e+00 -1.014761781741082336e+00 1.341325134789226103e+00
-1.353092123303289096e+00 -1.014479328229738853e+00 1.343426778180644376e+00
-1.353419011987158527e+00 -1.012851536298713162e+00 1.343751331848374253e+00
-1.353093481686413080e+00 -1.010735494897930797e+00 1.343428126860628735e+00
-1.358484494635167961e+00 -1.012882594593910834e+00 1.348780630974831363e+00
-1.354613377035067456e+00 -1.008121769989768213e+00 1.344937165363069953e+00
-1.353669059841830613e+00 -1.005545773861098446e+00 1.343999593572766438e+00
-1.353750521388347172e+00 -1.003732950820912517e+00 1.344080473226928696e+00
-1.351384359034806915e+00 -1.000108508349580871e+00 1.341731212734961209e+00
-1.355277425518723433e+00 -1.001114171717995660e+00 1.345596470446286164e+00
-1.351883182523503590e+00 -9.967361666408098841e-01 1.342226473050766478e+00
-1.350345275527946143e+00 -9.937336532312327497e-01 1.340699551561385761e+00
-1.343012347008480489e+00 -9.864787965378539747e-01 1.333419003278032422e+00
-1.353859735666752995e+00 -9.925730098750185082e-01 1.344188907370948316e+00
-1.351238833551382079e+00 -9.887816540000841092e-01 1.341586726762444171e+00
-1.350345275527946143e+00 -9.862591616687563789e-01 1.340699551561385761e+00
-1.352324908942715842e+00 -9.858336751663373532e-01 1.342665044150235021e+00
-1.352799133903658024e+00 -9.843073626738436666e-01 1.343135881649352159e+00
-1.351177650758101034e+00 -9.812577839558068726e-01 1.341525981007264612e+00
-1.351167847856008519e+00 -9.793809036765765974e-01 1.341516248128809208e+00
-1.348775819943281773e+00 -9.757806143942653332e-01 1.339141306839322088e+00
-1.351300631154660925e+00 -9.757372605173287861e-01 1.341648082935939179e+00
-1.354842802260335377e+00 -9.764201188620227345e-01 1.345164951768671457e+00
-1.349247112202418775e+00 -9.705202641159023091e-01 1.339609232585374343e+00
-1.350803020428301693e+00 -9.697701804399966319e-01 1.341154026719523662e+00
-1.352904312212347637e+00 -9.694065783305890749e-01 1.343240308653208093e+00
-1.354633463059847331e+00 -9.687710227017276576e-01 1.344957107910285776e+00
-1.355030196725666158e+00 -9.671796422814208372e-01 1.345351007646517827e+00
-1.356790941095978642e+00 -9.665588659764642321e-01 1.347099174749016415e+00
-1.348659366643169877e+00 -9.588997562995579260e-01 1.339025685383041786e+00
-1.355462292862043228e+00 -9.618609478281194836e-01 1.345780017253742633e+00
-1.309133271254350417e+00 -9.271734296029613409e-01 1.299781930972123467e+00
-1.314146195909898340e+00 -9.289052259036613135e-01 1.304759047535941630e+00
-1.313944761739963552e+00 -9.269445905566630062e-01 1.304559052241260453e+00
-1.314478109541300732e+00 -9.255018602928016813e-01 1.305088590257231562e+00
-1.316173526958217765e+00 -9.248742394496981545e-01 1.306771897046808961e+00
-1.314515062175960924e+00 -9.218897967379129366e-01 1.305125278933539468e+00
-1.319627825066164828e+00 -9.236493408950681161e-01 1.310201520572150224e+00
-1.349176824022751742e+00 -1.033511625976607728e+00 1.341396384597859370e+00
-1.349971066332195324e+00 -1.032249345697168641e+00 1.342186046666916877e+00
-1.350341731583733162e+00 -1.030661564865713364e+00 1.342554574364291931e+00
-1.349389561439455321e+00 -1.028064922758307409e+00 1.341607895199400824e+00
-1.349176824014185261e+00 -1.026033249515848622e+00 1.341396384589342405e+00
-1.349428048165975502e+00 -1.024354360312910828e+00 1.341646159980480757e+00
-1.353131815970021634e+00 -1.025290825476313339e+00 1.345328568878466191e+00
-1.351176639141080216e+00 -1.021936989662237671e+00 1.343384667172704994e+00
-1.349242135059927072e+00 -1.018604179336945359e+00 1.341461318999030095e+00
-1.351221488296459494e+00 -1.018226055545490061e+00 1.343429257691758361e+00
-1.352156573486902102e+00 -1.017056974818169257e+00 1.344358950428408583e+00
-1.353106478033788251e+00 -1.015896428739114121e+00 1.345303377061165984e+00
-1.351567574349780143e+00 -1.012868130906644293e+00 1.343773347934355211e+00
-1.353148984204107119e+00 -1.012178144965706128e+00 1.345345638106696606e+00
-1.347618206682114739e+00 -1.006173596285589777e+00 1.339846755499229936e+00
-1.350785138882627967e+00 -1.006666303395978623e+00 1.342995424619834122e+00
-1.354915329994031081e+00 -1.007866762862910326e+00 1.347101797725188232e+00
-1.349977130049109242e+00 -1.002322732351642154e+00 1.342192075415558739e+00
-1.351072094911193622e+00 -1.001263494694406564e+00 1.343280725828988276e+00
-1.353615842062145580e+00 -1.001272890126412962e+00 1.345809803686584649e+00
-1.353040111364478104e+00 -9.989720731615241434e-01 1.345237393115484847e+00
-1.353682470485782163e+00 -9.975704998899549425e-01 1.345876047877105908e+00
-1.345834290281344492e+00 -9.899219707828091908e-01 1.338073126596175610e+00
-1.336821987067922990e+00 -9.814405406372360696e-01 1.329112795576451900e+00
-1.346257841374075781e+00 -9.865024133754243252e-01 1.338494235152419609e+00
-1.348542433537000651e+00 -9.863077875329199218e-01 1.340765652518225437e+00
-1.350271091572980309e+00 -9.857009968479422124e-01 1.342484341720694196e+00
-1.351482506523485005e+00 -9.847125433772204728e-01 1.343688770677611721e+00
-1.349691592228112524e+00 -9.815373461096653651e-01 1.341908184235447443e+00
-1.349307172124218024e+00 -9.793880092150375472e-01 1.341525981007264612e+00
-1.354751298848543950e+00 -9.814622831340251707e-01 1.346938712515303171e+00
-1.351117992498050313e+00 -9.769578162277668953e-01 1.343326358733419434e+00
-1.351142334138374368e+00 -9.751030992475503423e-01 1.343350560000254434e+00
-1.349389550382715797e+00 -9.719682474919144610e-01 1.341607884206423407e+00
-1.352829174390977274e+00 -9.725711609125946566e-01 1.345027672574341748e+00
-1.348933060407220719e+00 -9.679009241168663458e-01 1.341154026719523662e+00
-1.347752591794655785e+00 -9.651862810980982310e-01 1.339980365639054982e+00
-1.352700640890364348e+00 -9.668553245518084482e-01 1.344899880301340778e+00
-1.353511368172557905e+00 -9.655591987741418691e-01 1.345705932277527994e+00
-1.353431822063883017e+00 -9.636269622950178748e-01 1.345626844895736696e+00
-1.347281346970911953e+00 -9.573809314929180303e-01 1.339511838392236642e+00
-1.308522903850079633e+00 -9.280258423014489111e-01 1.300976907648385250e+00
-1.310166938026513073e+00 -9.273762812609426254e-01 1.302611461000589665e+00
-1.310340597581073130e+00 -9.256834252025435417e-01 1.302784119094392068e+00
-1.312504614384154555e+00 -9.253934074735019610e-01 1.304935656434921931e+00
-1.310196353849586437e+00 -9.219503695019309886e-01 1.302640707188352565e+00
-1.314471158046419674e+00 -9.231369342085212759e-01 1.306890859423697426e+00
-1.316737708752371505e+00 -9.229040626295025307e-01 1.309144339374091581e+00
-1.350590589599163005e+00 -1.036030813524190908e+00 1.344666042126151595e+00
-1.348468461226848270e+00 -1.032531733729975976e+00 1.342553222755678233e+00
-1.349417981462205596e+00 -1.031386263935168746e+00 1.343498577792674009e+00
-1.351273185980523150e+00 -1.030929134170674333e+00 1.345345644206575875e+00
-1.350590589599163005e+00 -1.028534208505926140e+00 1.344666042126151595e+00
-1.350247014308169513e+00 -1.026398886300934121e+00 1.344323973974432818e+00
-1.353220971885818358e+00 -1.026781757823029162e+00 1.347284885886735672e+00
-1.345509164474208541e+00 -1.019063179510631079e+00 1.339606907356701626e+00
-1.351753926113894222e+00 -1.021917078242037702e+00 1.345824275508622048e+00
-1.349447580687296533e+00 -1.018300931112688934e+00 1.343528047176778539e+00
-1.351504558400455691e+00 -1.017977718838199541e+00 1.345576001680234945e+00
-1.351470503361758890e+00 -1.016076695696421783e+00 1.345542096028550683e+00
-1.351504555768896720e+00 -1.014226877810902927e+00 1.345575999060219630e+00
-1.341930274928733402e+00 -1.005179793842777558e+00 1.336043717092101124e+00
-1.347870246170943309e+00 -1.007758783577433981e+00 1.341957631850663191e+00
-1.349303568941746745e+00 -1.006958067120544698e+00 1.343384667158141310e+00
-1.351256035419166945e+00 -1.006540078850923337e+00 1.345328568878466191e+00
-1.351451868487035357e+00 -1.004810606964463338e+00 1.345523542898214409e+00
-1.349693962230687605e+00 -1.001630688625875454e+00 1.343773347934355211e+00
-1.349840466523112292e+00 -9.998663015921243069e-01 1.343919209565974882e+00
-1.351127215501611856e+00 -9.989445382786253935e-01 1.345200314046824719e+00
-1.350699038705998278e+00 -9.967536676231971704e-01 1.344774015506377429e+00
-1.343554480304830490e+00 -9.896169250775328496e-01 1.337660797672623136e+00
-1.348722721404098657e+00 -9.915521178949774361e-01 1.342806367586425909e+00
-1.342425686839375354e+00 -9.850598514707344933e-01 1.336536955811691740e+00
-1.350122022083755979e+00 -9.888338517559771557e-01 1.344199530045241620e+00
-1.346231910022366529e+00 -9.841166178467348757e-01 1.340326482484197834e+00
-1.345956951774614607e+00 -9.820478976872645260e-01 1.340052730377821577e+00
-1.347929393106108042e+00 -9.816165877018123709e-01 1.342016519329833013e+00
-1.345041512538646122e+00 -9.776470654546981498e-01 1.339141306839322088e+00
-1.349199167829022716e+00 -9.787968480166955310e-01 1.343280724014955574e+00
-1.349347063459478857e+00 -9.770317154566956486e-01 1.343427970881314826e+00
-1.351091697418605131e+00 -9.764201188620227345e-01 1.345164951768671457e+00
-1.345511499947750433e+00 -9.705202641159023091e-01 1.339609232585374343e+00
-1.345511499947750433e+00 -9.686531608759716416e-01 1.339609232585374343e+00
-1.345884268199559308e+00 -9.670539016110589747e-01 1.339980365639054982e+00
-1.349417981462205596e+00 -9.677204451737383417e-01 1.343498577792674009e+00
-1.350882937808079332e+00 -9.668964657692553644e-01 1.344957107910285776e+00
-1.347166207197992849e+00 -9.623668109244519764e-01 1.341256681239463733e+00
-1.349633348203072236e+00 -9.622564242855322636e-01 1.343712999798333474e+00
-1.348639711980509803e+00 -9.596765412175938259e-01 1.342723722294850486e+00
-1.353247245687182021e+00 -9.610773715526473859e-01 1.347311044434531979e+00
-1.307168977078185357e+00 -9.265386479686652521e-01 1.301434904355047051e+00
-1.304792550822184483e+00 -9.230436061660293179e-01 1.299068902612794840e+00
-1.309047170577146924e+00 -9.242369295465154844e-01 1.303304858905334207e+00
-1.310790677514935831e+00 -9.236489887603424043e-01 1.305040717715184151e+00
-1.309000396921102594e+00 -9.205710285848065499e-01 1.303258290428230159e+00
-1.310685153338666087e+00 -9.199370784200024964e-01 1.304935656434921931e+00
-1.349847893644976704e+00 -1.036900495317533588e+00 1.345794803510173887e+00
-1.349721591885774119e+00 -1.034927926254701314e+00 1.345668880988081240e+00
-1.346273418555834933e+00 -1.030413208074960396e+00 1.342231061237513901e+00
-1.340067440251956565e+00 -1.023801131323513136e+00 1.336043717173507117e+00
-1.347391790537162404e+00 -1.027524566608591705e+00 1.343346075164600029e+00
-1.348140580855295312e+00 -1.026222244064987743e+00 1.344092617144482471e+00
-1.349055957435298936e+00 -1.025044416666347047e+00 1.345005245189778265e+00
-1.347482396724330345e+00 -1.021976350829704616e+00 1.343436409295156952e+00
-1.345868497455034341e+00 -1.018882120099672939e+00 1.341827355963864488e+00
-1.349590025192911602e+00 -1.019824115431252842e+00 1.345537709340962396e+00
-1.346144719027865699e+00 -1.015350074836637084e+00 1.342102748146260849e+00
-1.349747403679139257e+00 -1.016191869540274739e+00 1.345694615278251183e+00
-1.347446646947190629e+00 -1.012587298208419639e+00 1.343400766861273965e+00
-1.340067440251956565e+00 -1.005179793904023899e+00 1.336043717173507117e+00
-1.349483431817693369e+00 -1.010367477463855579e+00 1.345431436025922523e+00
-1.347430498771669205e+00 -1.006958067131461076e+00 1.343384667172704994e+00
-1.347706019926310450e+00 -1.005291220669949137e+00 1.343659361040006051e+00
-1.347706019896281582e+00 -1.003418472471976797e+00 1.343659361010067332e+00
-1.347487101953608546e+00 -1.001383035752894557e+00 1.343441100396385313e+00
-1.349025181721618116e+00 -1.000651476185719702e+00 1.344974561884095587e+00
-1.349766418950261171e+00 -9.993256842505414683e-01 1.345713573453600986e+00
-1.345255423655614235e+00 -9.941165387321962976e-01 1.341216122996570670e+00
-1.349481055270041141e+00 -9.953639802625782185e-01 1.345429066614157287e+00
-1.342241885649665623e+00 -9.881592844957507449e-01 1.338211633522105037e+00
-1.349940874884809183e+00 -9.919514313168090736e-01 1.345887505561997433e+00
-1.346300887071094854e+00 -9.874059325302122492e-01 1.342258447275060051e+00
-1.348187196704784929e+00 -9.869159756439437325e-01 1.344139093023949849e+00
-1.344119927869222408e+00 -9.820708402837400319e-01 1.340084036680825097e+00
-1.342266699128737306e+00 -9.788516032302824188e-01 1.338236372495547055e+00
-1.346849010756936638e+00 -9.803217090280481605e-01 1.342804925149759576e+00
-1.349216236390164525e+00 -9.801698784929970820e-01 1.345165042886678597e+00
-1.351158423624754912e+00 -9.797032805301735259e-01 1.347101398456858945e+00
-1.345399763353921196e+00 -9.736582249786028820e-01 1.341360029296559286e+00
-1.345648375747121372e+00 -9.719682554561082100e-01 1.341607895199400824e+00
-1.344015944604463053e+00 -9.689215221240197184e-01 1.339980365639054982e+00
-1.349362073456023658e+00 -9.709005782707905707e-01 1.345310442058182510e+00
-1.349380272541976566e+00 -9.690385982922391506e-01 1.345328586499063173e+00
-1.345436228145399538e+00 -9.643366437748449593e-01 1.341396384597859370e+00
-1.347428608795103733e+00 -9.638923128477570046e-01 1.343382782871034964e+00
-1.346226448311917290e+00 -9.611616468972643545e-01 1.342184232027733071e+00
-1.349910114287422802e+00 -9.619158529595228657e-01 1.345856837327220390e+00
-1.350122942727264297e+00 -9.601914030727205507e-01 1.346069026722578332e+00
-1.347715676670903084e+00 -9.566066224472011825e-01 1.343668988788993879e+00
-1.303730130899346529e+00 -9.235741061187758838e-01 1.299815515217927375e+00
-1.307051981749743685e+00 -9.241110789734569009e-01 1.303127391788278189e+00
-1.307190120262410771e+00 -9.223922975724944129e-01 1.303265115522476147e+00
-1.308484989526578435e+00 -9.214877485734845886e-01 1.304556096776842589e+00
-1.307263208775361507e+00 -9.188107718674844993e-01 1.303337984577862541e+00
-1.347694374240611781e+00 -1.036687350226746185e+00 1.345518162157536057e+00
-1.344223048185119396e+00 -1.032146592533397689e+00 1.342052441483983838e+00
-1.344302687033356758e+00 -1.030337123007077471e+00 1.342131951734055972e+00
-1.345281637642321337e+00 -1.029215455478967423e+00 1.343109321566114067e+00
-1.344413589961197308e+00 -1.026680576961097824e+00 1.342242675579534694e+00
-1.343206748944233642e+00 -1.023889861331060525e+00 1.341037783329334321e+00
-1.345405149297074887e+00 -1.023693488529301199e+00 1.343232633778352447e+00
-1.343459904102572100e+00 -1.020343941449072478e+00 1.341290529701137046e+00
-1.345476265512017378e+00 -1.020003094767296226e+00 1.343303635157194753e+00
-1.349642571946042091e+00 -1.021283514190319375e+00 1.347463213978062679e+00
-1.342619077000006378e+00 -1.014100512281306044e+00 1.340451060338230471e+00
-1.347718346821753510e+00 -1.016076695696421783e+00 1.345542096028550683e+00
-1.345482349197941963e+00 -1.012518663429898602e+00 1.343309709019385512e+00
-1.345680259572515025e+00 -1.010795061102836678e+00 1.343507299814863609e+00
-1.343816109570666661e+00 -1.007524880132523615e+00 1.341646159980480757e+00
-1.343816109570666661e+00 -1.005654937890258172e+00 1.341646159980480757e+00
-1.347486318265068483e+00 -1.006526516896398160e+00 1.345310442143867080e+00
-1.347203076483431516e+00 -1.004440289642380746e+00 1.345027657731645121e+00
-1.347504474317457568e+00 -1.002789929525845558e+00 1.345328568878466191e+00
-1.343825469767826242e+00 -9.981821215959822968e-01 1.341655505063104936e+00
-1.343549546828182395e+00 -9.961075970689848846e-01 1.341380027674653475e+00
-1.345762171341954971e+00 -9.958753866033839275e-01 1.343589079315900658e+00
-1.345954777924706303e+00 -9.941449988688147998e-01 1.343781374883943780e+00
-1.349280171232210446e+00 -9.947236451224337195e-01 1.347101398456858945e+00
-1.344052280553431400e+00 -9.889992403267533483e-01 1.341881949602191870e+00
-1.348324307537667410e+00 -9.902665271578678929e-01 1.346147078259240404e+00
-1.346022324247885926e+00 -9.867028408220660518e-01 1.343848812135565840e+00
-1.342251459726382601e+00 -9.820708402836936246e-01 1.340084036680761814e+00
-1.344127403181845537e+00 -9.815730164540937830e-01 1.341956950925082381e+00
-1.343440054010701878e+00 -9.792016485042592810e-01 1.341270711662535309e+00
-1.345891384241112654e+00 -9.791155350511439037e-01 1.343718083566363353e+00
-1.345891384241112654e+00 -9.772427050300054319e-01 1.343718083566363353e+00
-1.347203091350134274e+00 -9.763204714789500693e-01 1.345027672574341748e+00
-1.347718694293709163e+00 -9.748187570941496682e-01 1.345542442939420047e+00
-1.345671523443514817e+00 -9.714654933361754896e-01 1.343498577792674009e+00
-1.343565930198192815e+00 -9.680758319958205904e-01 1.341396384589342405e+00
-1.345943083258236639e+00 -9.679157335336507906e-01 1.343769699101632797e+00
-1.344694289276129773e+00 -9.651465169440736069e-01 1.342522921630542765e+00
-1.347132060736725201e+00 -9.650216568098809455e-01 1.344956756658806318e+00
-1.344694289276129773e+00 -9.614041884565044382e-01 1.342522921630542765e+00
-1.347228405740017232e+00 -9.613412927936849650e-01 1.345052946087389234e+00
-1.350075444280448789e+00 -9.614942008595860345e-01 1.347895387324610894e+00
-1.345801154181414772e+00 -9.565774404792060093e-01 1.343627999207166912e+00
-1.299978526725673378e+00 -9.221983889122807865e-01 1.297879364607264163e+00
-1.303762571628397149e+00 -9.230685647162732987e-01 1.301657299160046799e+00
-1.303676536798217045e+00 -9.211935643828712550e-01 1.301571403256050807e+00
-1.303712905782530740e+00 -9.194051251719305151e-01 1.301607713512937581e+00
-1.306894219303731841e+00 -9.198300880012509895e-01 1.304783889954799658e+00
-1.347743349130023027e+00 -1.038170197963534935e+00 1.347442752595653381e+00
-1.345818329239413913e+00 -1.034812011236912799e+00 1.345518162055564071e+00
-1.346952545327399831e+00 -1.033807200959540484e+00 1.346652125171479808e+00
-1.343640216340632909e+00 -1.029392632713139077e+00 1.343340534956389831e+00
-1.339892218947253300e+00 -1.024654127473170639e+00 1.339593373504829543e+00
-1.343209230637771201e+00 -1.025319038494112212e+00 1.342909645379254835e+00
-1.343251504139239438e+00 -1.023479545197701679e+00 1.342951909452171133e+00
-1.341589753756507353e+00 -1.020343941449072478e+00 1.341290529701137046e+00
-1.344095291195937403e+00 -1.020376586008013842e+00 1.343795508313197384e+00
-1.344542883502473529e+00 -1.018842816287098829e+00 1.344243000790120934e+00
-1.345558103787575233e+00 -1.017737134822645384e+00 1.345257994643610511e+00
-1.337921500729822633e+00 -1.010096717370622788e+00 1.337623094830333148e+00
-1.343425336933406156e+00 -1.012379969392026569e+00 1.343125703475205768e+00
-1.341752580049148103e+00 -1.009249737918709311e+00 1.341453319677502032e+00
-1.337676794456832186e+00 -1.004319988238851158e+00 1.337378443135877948e+00
-1.328757662167028730e+00 -9.957719897646325480e-01 1.328461300141927648e+00
-1.336855517225461254e+00 -9.999776788007462835e-01 1.336557349079656287e+00
-1.338754243139219424e+00 -9.995324442182037528e-01 1.338455651507422406e+00
-1.343435517378167798e+00 -1.001155529779329756e+00 1.343135881649352159e+00
-1.343540030855995049e+00 -9.993612511509943896e-01 1.343240371816814438e+00
-1.343333032408669858e+00 -9.973354043732686192e-01 1.343033419537786877e+00
-1.341515330452796029e+00 -9.941165387321962976e-01 1.341216122996570670e+00
-1.340145658540986995e+00 -9.912341227469901872e-01 1.339846756572175224e+00
-1.345163266644476829e+00 -9.930709531968666681e-01 1.344863245563775012e+00
-1.341163059308078775e+00 -9.882489357289367948e-01 1.340863930421326788e+00
-1.341860298786934358e+00 -9.868928797946406872e-01 1.341561014390032058e+00
-1.344128822926061506e+00 -9.866883179391515712e-01 1.343829032564507475e+00
-1.340382991583669137e+00 -9.820708402837400319e-01 1.340084036680825097e+00
-1.344493357431608249e+00 -9.832089275376052484e-01 1.344193485765398322e+00
-1.345234964827435764e+00 -9.818767284917683247e-01 1.344934927755391474e+00
-1.343681666411644882e+00 -9.788706262740336506e-01 1.343381975782505178e+00
-1.343852582525530526e+00 -9.771225387470107160e-01 1.343552853775786371e+00
-1.340279290303522775e+00 -9.726567579895861737e-01 1.339980358529893278e+00
-1.343674051916440515e+00 -9.732480262584635167e-01 1.343374362985614745e+00
-1.343419653879991404e+00 -9.711917645821764866e-01 1.343120021689321542e+00
-1.341514294368545634e+00 -9.679449909723687462e-01 1.341215087143405205e+00
-1.346006141350413632e+00 -9.693104000125807307e-01 1.345705932277527994e+00
-1.342068430688695413e+00 -9.646045906691524952e-01 1.341769099870693260e+00
-1.342530471444998152e+00 -9.630659225950974900e-01 1.342231037574845853e+00
-1.346095029438407087e+00 -9.637472382750074118e-01 1.345794800540195402e+00
-1.342436188544870346e+00 -9.592570365454717862e-01 1.342136775703286267e+00
-1.342596471074268161e+00 -9.575007193332064626e-01 1.342297022483761371e+00
-1.343873113898012006e+00 -9.565385554923510059e-01 1.343573380569013542e+00
-1.347901682908972276e+00 -9.575277580288685808e-01 1.347601051060323130e+00
-1.298275463118329753e+00 -9.204649966443699816e-01 1.297985899749219074e+00
-1.301902203828344540e+00 -9.212221777154079305e-01 1.301611831562132560e+00
-1.299358707585422268e+00 -9.176118077774492177e-01 1.299068902612794840e+00
-1.305050121904126170e+00 -9.198125749061705214e-01 1.304759047535941630e+00
-1.338037952933060604e+00 -1.032132879504354950e+00 1.339606907356701626e+00
-1.343442240936414178e+00 -1.034426986577323682e+00 1.345017532311522990e+00
-1.339679252313543678e+00 -1.029660160999900542e+00 1.341250131289412950e+00
-1.341825849288246442e+00 -1.029437622059854451e+00 1.343399245317396407e+00
-1.337702769840234840e+00 -1.024407797544176990e+00 1.339271331235415863e+00
-1.339719603410419291e+00 -1.024082834602037639e+00 1.341290529701113732e+00
-1.341823433765788831e+00 -1.023818622098346731e+00 1.343396826962549140e+00
-1.333961997836444757e+00 -1.015958891062613167e+00 1.335526172883114260e+00
-1.345636482983531002e+00 -1.022972593518807205e+00 1.347214347279504176e+00
-1.341988707404758285e+00 -1.018326888127243812e+00 1.343562294397820711e+00
-1.340172622319319329e+00 -1.015078729053048301e+00 1.341744079810208490e+00
-1.296632620868267693e+00 -9.802911698752073688e-01 1.298153024293214886e+00
-1.271047867423383604e+00 -9.591747460621204979e-01 1.272538270718658104e+00
-1.259303996704310036e+00 -9.485551983955797795e-01 1.260780629390256813e+00
-1.235401008482556628e+00 -9.288266871636629007e-01 1.236849613040432283e+00
-1.222928515196603172e+00 -9.177428634827986542e-01 1.224362494778055810e+00
-1.223022146854820802e+00 -9.161065222814728237e-01 1.224456236226734829e+00
-1.239476670775386813e+00 -9.267022399645762354e-01 1.240930054366898627e+00
-1.261104750136869734e+00 -9.411128571904476825e-01 1.262583494347424340e+00
-1.329588433703591477e+00 -9.903642262353123948e-01 1.331147480403357175e+00
-1.340912017231290276e+00 -9.969276596822013170e-01 1.342484341720694196e+00
-1.337355560299063884e+00 -9.924173933838508210e-01 1.338923714563831080e+00
-1.343411567230720971e+00 -9.950368030558595089e-01 1.344986822638504442e+00
-1.343288134890090024e+00 -9.930709531968666681e-01 1.344863245563775012e+00
-1.341777253774862677e+00 -9.900816656690830664e-01 1.343350592821962453e+00
-1.341753057159726481e+00 -9.881915272105076253e-01 1.343326367834397628e+00
-1.342615276999711726e+00 -9.869530587506244457e-01 1.344189598694757182e+00
-1.339882202726359273e+00 -9.830743093695022417e-01 1.341453319677502032e+00
-1.342305813730236608e+00 -9.829794623362854145e-01 1.343879772555331753e+00
-1.335571268428265013e+00 -9.761840520999266468e-01 1.337137330470896224e+00
-1.338230153433829672e+00 -9.762600928407825229e-01 1.339799333227629674e+00
-1.343288134890090024e+00 -9.780755443150718209e-01 1.344863245563775012e+00
-1.338410966718338591e+00 -9.726567579895861737e-01 1.339980358529893278e+00
-1.343734807711272738e+00 -9.746506771288147020e-01 1.345310442143867080e+00
-1.344092826798682916e+00 -9.730348100042597315e-01 1.345668881036731657e+00
-1.342195869195126345e+00 -9.697886354948226373e-01 1.343769699101632797e+00
-1.340659035810628952e+00 -9.668074562346251621e-01 1.342231063659479418e+00
-1.336588867787947610e+00 -9.620072033602790063e-01 1.338156123045624479e+00
-1.336588867787900980e+00 -9.601421254165458663e-01 1.338156123045577628e+00
-1.344150000807464940e+00 -9.636980564309178821e-01 1.345726122086522203e+00
-1.342022165201047779e+00 -9.602998297419478302e-01 1.343595791425999941e+00
-1.338325561630029359e+00 -9.557871800156378939e-01 1.339894853297420863e+00
-1.343969554740184646e+00 -9.579425534257476338e-01 1.345545464432078120e+00
-1.337846301438300189e+00 -9.517112433418294382e-01 1.339415031135535061e+00
-1.346020510026109784e+00 -9.556479371810258083e-01 1.347598824623904346e+00
-1.297840845862483494e+00 -9.196303197413070452e-01 1.299362666025980717e+00
-1.297333998042595304e+00 -9.174608734265384813e-01 1.298855223887278809e+00
-1.302298655086131518e+00 -9.191545970118483178e-01 1.303825702380507989e+00
-1.340659048980961776e+00 -1.035600357191646337e+00 1.344107352166900471e+00
-1.343197293378398882e+00 -1.035684120351260562e+00 1.346652125171479808e+00
-1.339696772054009388e+00 -1.031112984577400082e+00 1.343142600171737699e+00
-1.341631796100970941e+00 -1.030727566185460464e+00 1.345082601285457091e+00
-1.340037962925487713e+00 -1.027630576654353201e+00 1.343484668618741606e+00
-1.333533036111848258e+00 -1.020778749454099632e+00 1.336963010511733385e+00
-1.341892435972280584e+00 -1.025302518305918342e+00 1.345343911547422167e+00
-1.340409950678234097e+00 -1.022296768219983720e+00 1.343857613159534559e+00
-1.341588274689157423e+00 -1.021320775115095669e+00 1.345038967932413509e+00
-1.340631289857901587e+00 -1.018718910451023474e+00 1.344079521644723219e+00
-1.282603569799312782e+00 -9.728325576445716605e-01 1.285902548745076146e+00
-1.243638146206042849e+00 -9.415401595835617421e-01 1.246836902358829713e+00
-1.235513731803030035e+00 -9.336628373099998823e-01 1.238691591185611784e+00
-1.231648059944157714e+00 -9.290205498234688219e-01 1.234815976449319175e+00
-1.231740888477304896e+00 -9.273693939489873195e-01 1.234909043746324153e+00
-1.239619856438843204e+00 -9.315692304455471806e-01 1.242808277166365327e+00
-1.247471215958902757e+00 -9.357263385075502704e-01 1.250679831133377995e+00
-1.259570595198361564e+00 -9.430420017572109792e-01 1.262810331132444563e+00
-1.251449674882694874e+00 -9.352131433885577660e-01 1.254668523033699579e+00
-1.235143850498422458e+00 -9.213018075669586748e-01 1.238320758510943476e+00
-1.243613081150621635e+00 -9.258812964344517171e-01 1.246811772833690934e+00
-1.298805861431710396e+00 -9.651579364750284551e-01 1.302146514219826079e+00
-1.334601657339688163e+00 -9.898933058511409921e-01 1.338034380335487494e+00
-1.333191857646401024e+00 -9.869846988006839572e-01 1.336620954502670378e+00
-1.340374404240049833e+00 -9.904290858765145700e-01 1.343821975292514681e+00
-1.339880059183678807e+00 -9.881915205155527016e-01 1.343326358733419434e+00
-1.339881481490120763e+00 -9.863202834629476445e-01 1.343327784698169491e+00
-1.340744961603983265e+00 -9.850824201586751983e-01 1.344193485765398322e+00
-1.338127794168070928e+00 -9.812896793125203132e-01 1.341569586724747021e+00
-1.336419574269262833e+00 -9.781695413403082018e-01 1.339856973121123396e+00
-1.337807083097877658e+00 -9.773157174203208619e-01 1.341248050755034171e+00
-1.341506622081171329e+00 -9.781438054701619977e-01 1.344957105306117118e+00
-1.339927939383487976e+00 -9.751203765599333328e-01 1.343374362085677953e+00
-1.340660345165072487e+00 -9.737800038270356673e-01 1.344108651684920552e+00
-1.339674200738388166e+00 -9.711917277851898067e-01 1.343119970800535912e+00
-1.336776855341657466e+00 -9.672233604552603614e-01 1.340215173154577499e+00
-1.343985891616887640e+00 -9.705614290427130308e-01 1.347442751759995616e+00
