-8.949148262901074347e-01 -6.858658155492063369e-01 9.945331554976649668e-01
-8.949452025730036953e-01 -6.845029014213114271e-01 9.945669131465423307e-01
-8.949694979966739128e-01 -6.831352516387682039e-01 9.945939130393333105e-01
-8.949318287984220355e-01 -6.817203246266360095e-01 9.945520506570126873e-01
-8.949201553284570343e-01 -6.803252764625602467e-01 9.945390777431902807e-01
-8.949361548716641135e-01 -6.789512588380395286e-01 9.945568582913775213e-01
-8.949603044347252956e-01 -6.775833621108559024e-01 9.945836960869413046e-01
-8.949148262901074347e-01 -6.761627825887284171e-01 9.945331554976649668e-01
-8.949603044347252956e-01 -6.748109260956722810e-01 9.945836960869413046e-01
-8.949826933051319156e-01 -6.734415548894898684e-01 9.946085771966061140e-01
-8.949411300189467067e-01 -6.720240917374962208e-01 9.945623872521015540e-01
-8.949597235982054144e-01 -6.706518368141153319e-01 9.945830505940296273e-01
-8.950285548290254356e-01 -6.693170928341258819e-01 9.946595438414015389e-01
-8.956549988215584124e-01 -6.683982639375749546e-01 9.953557210666902355e-01
-9.090420846750912887e-01 -6.769805822366687931e-01 1.010233003625551573e+00
-9.102221914219854604e-01 -6.764495723417259798e-01 1.011544475122429398e+00
-9.072593774736404937e-01 -6.728424304912916654e-01 1.008251852608379240e+00
-9.088985821307642432e-01 -6.726502915459676712e-01 1.010073526953539025e+00
-9.052691709553246646e-01 -6.685620807854555370e-01 1.006040104282610592e+00
-9.032014528709195744e-01 -6.656360406242480821e-01 1.003742216114093200e+00
-9.018534297612441630e-01 -6.632456876845932436e-01 1.002244136478395165e+00
-8.986804238628099961e-01 -6.595201992087788012e-01 9.987179242893936548e-01
-9.031696826543065271e-01 -6.614158258731709372e-01 1.003706909364388222e+00
-8.974431330885067615e-01 -6.558320535235685478e-01 9.973429032685249274e-01
-9.019197562260685697e-01 -6.577064753893723248e-01 1.002317846139266999e+00
-9.067130267420999701e-01 -6.597974475753073387e-01 1.007644684304664917e+00
-8.952824178209848327e-01 -6.500928986834618728e-01 9.949416658434518945e-01
-8.949207754866734810e-01 -6.484441419581885580e-01 9.945397669349320680e-01
-8.948599333882455431e-01 -6.470139942828763147e-01 9.944721521381280072e-01
-8.948322092570880626e-01 -6.456079291995040492e-01 9.944413418678837990e-01
-8.948094022825763272e-01 -6.442054900388344274e-01 9.944159961124419134e-01
-8.948021316713085094e-01 -6.428142826528109310e-01 9.944079161658880839e-01
-8.947989625080634557e-01 -6.414260378643501515e-01 9.944043942241012068e-01
-8.947920603560866049e-01 -6.400351327267499446e-01 9.943967237522490787e-01
-8.947914468865115767e-01 -6.386487374570685160e-01 9.943960419937013517e-01
-8.947934969207108624e-01 -6.372642410123173784e-01 9.943983202294855994e-01
-8.947936686739849099e-01 -6.358784034306665944e-01 9.943985111016451217e-01
-8.947962419471314766e-01 -6.344942682192710182e-01 9.944013708212376956e-01
-8.947938332132467920e-01 -6.331066000438296815e-01 9.943986939567577288e-01
-8.947909242570100119e-01 -6.317185861753866760e-01 9.943954611871796967e-01
-8.948009771190612582e-01 -6.303397122302095701e-01 9.944066330935152909e-01
-8.948049206626530472e-01 -6.289565129157556056e-01 9.944110156165633096e-01
-8.948194932908527521e-01 -6.275807560827212361e-01 9.944272104112873434e-01
-8.948416215831263010e-01 -6.262102415604938743e-01 9.944518019363063344e-01
-8.949302006123188713e-01 -6.248860577932142668e-01 9.945502412277626991e-01
-8.952686365667624768e-01 -6.237356755056223667e-01 9.949263505152823317e-01
-9.157400161847388809e-01 -6.365797277650665498e-01 1.017676522007308293e+00
-9.102620607660686369e-01 -6.313617896404909446e-01 1.011588782561990918e+00
-9.136290621086485819e-01 -6.322820223190830369e-01 1.015330584989918794e+00
-8.957604711054828472e-01 -6.185285081434731547e-01 9.954729341022412470e-01
-8.935748583152930413e-01 -7.663024240703174561e-01 9.945851360744778491e-01
-8.935404121223927687e-01 -7.648867174929842028e-01 9.945467960617367931e-01
-8.934858621887792340e-01 -7.634539398122285325e-01 9.944860797684782483e-01
-8.934682346607285552e-01 -7.620528230687845239e-01 9.944664596132984924e-01
-8.934596606757608805e-01 -7.606594688786398883e-01 9.944569164195454780e-01
-8.935725244679953994e-01 -7.593693406640897869e-01 9.945825384075780429e-01
-8.935203914165967820e-01 -7.579389018123203758e-01 9.945245122024574114e-01
-8.934720846852327591e-01 -7.565118644945110216e-01 9.944707448470534450e-01
-8.934826879724111492e-01 -7.551347653762126022e-01 9.944825467366467109e-01
-8.935190933937617874e-01 -7.537794002334067267e-01 9.945230674502846258e-01
-8.936168253793194127e-01 -7.524755625495804789e-01 9.946318471224633306e-01
-8.935222884343986260e-01 -7.510098186697754530e-01 9.945266236603738097e-01
-8.934653564335961473e-01 -7.495759169046698478e-01 9.944632560295165735e-01
-8.934519579617773433e-01 -7.481786468525116751e-01 9.944483429858098633e-01
-8.934717662439982666e-01 -7.468091742660116772e-01 9.944703904090165247e-01
-8.934623502214950053e-01 -7.454152583965775181e-01 9.944599099932623920e-01
-8.934367518861319191e-01 -7.440078959488667376e-01 9.944314180055755514e-01
-8.934238017851373614e-01 -7.426111260971904882e-01 9.944170040168202052e-01
-8.934192202608622901e-01 -7.412213393779878423e-01 9.944119045940889023e-01
-8.934135709296202599e-01 -7.398306826287409654e-01 9.944056166588031154e-01
-8.934175158874972933e-01 -7.384479734996213240e-01 9.944100075572605002e-01
-8.934296326782737996e-01 -7.370719938246937941e-01 9.944234940378738896e-01
-8.934303689399174520e-01 -7.356866053689801177e-01 9.944243135270081080e-01
-8.934373913491447938e-01 -7.343063811445835753e-01 9.944321297538993853e-01
-8.934587320610534178e-01 -7.329378809756719182e-01 9.944558828336330647e-01
-8.934706959166627271e-01 -7.315616369520121509e-01 9.944691990911893598e-01
-8.934888773900729886e-01 -7.301904370640914799e-01 9.944894358100692111e-01
-8.934830220023988190e-01 -7.287995742888443429e-01 9.944829185255993353e-01
-8.934868461875625778e-01 -7.274166101348291669e-01 9.944871749991182064e-01
-8.934915922048328740e-01 -7.260343831790980751e-01 9.944924575092388697e-01
-8.934943880250292292e-01 -7.246505598302795947e-01 9.944955693707516753e-01
-8.934943880250292292e-01 -7.232644646508030739e-01 9.944955693707516753e-01
-8.934546616910991057e-01 -7.218462734877962861e-01 9.944513523464364457e-01
-8.934766823410931202e-01 -7.204779968563586046e-01 9.944758622248947022e-01
-8.934882695286737730e-01 -7.191012547965692780e-01 9.944887592356256301e-01
-8.934866540980909155e-01 -7.177138714767636873e-01 9.944869611957288802e-01
-8.935103150587770937e-01 -7.163467578046499584e-01 9.945132968066570101e-01
-8.935916438389049921e-01 -7.150257148117723505e-01 9.946038190444947968e-01
-8.937432616848812739e-01 -7.137605536845706977e-01 9.947725758694752063e-01
-8.936186594149908569e-01 -7.122747559518878280e-01 9.946338884787088164e-01
-8.934979282011764612e-01 -7.107924243043689527e-01 9.944995097306916776e-01
-8.934805722900005520e-01 -7.093925436422491293e-01 9.944801918961331255e-01
-8.934677246607974910e-01 -7.079962892547804199e-01 9.944658919626465643e-01
-8.934661308253383227e-01 -7.066089749337934878e-01 9.944641179590001379e-01
-8.934682346607182302e-01 -7.052245841713223884e-01 9.944664596132869461e-01
-8.934731633766773706e-01 -7.038424122093128732e-01 9.944719454744739284e-01
-8.934830220023988190e-01 -7.024641008930891939e-01 9.944829185255993353e-01
-8.935479973206045257e-01 -7.011290067071633825e-01 9.945552386956418855e-01
-8.936383579096011109e-01 -6.998135902850249890e-01 9.946558137038425951e-01
-8.940789176586608766e-01 -6.987715933112094158e-01 9.951461746108108963e-01
-9.143489800148524305e-01 -7.131953087980688055e-01 1.017707577876767022e+00
-9.123246196073916403e-01 -7.102009939240964131e-01 1.015454382464449523e+00
-9.088512878258780958e-01 -7.060872529527957298e-01 1.011588423020311378e+00
-9.088655568584508293e-01 -7.046883978030794582e-01 1.011604305033520390e+00
-8.939148879528373559e-01 -6.917096575754259069e-01 9.949636028813485522e-01
-8.936884138869343186e-01 -6.901480161939888003e-01 9.947115280411070737e-01
-8.935637057772877201e-01 -6.886655080421568709e-01 9.945727228463904224e-01
-8.935505093501077134e-01 -6.872691553738162762e-01 9.945580346865787735e-01
-8.935409394603608391e-01 -6.858756273533902492e-01 9.945473830103285229e-01
-8.936450982708166180e-01 -6.845692499313117407e-01 9.946633159998330420e-01
-8.935754904528017128e-01 -6.831297064573097488e-01 9.945858396692179859e-01
-8.935290718235076035e-01 -6.817080708849366788e-01 9.945341738481585647e-01
-8.935235852656376876e-01 -6.803177445028882886e-01 9.945280670862517436e-01
-8.935032572444226995e-01 -6.789161580618990888e-01 9.945054411724202348e-01
-8.934162892654008425e-01 -6.774641026161055679e-01 9.944086422770119782e-01
-8.935296076386132214e-01 -6.761638804137288794e-01 9.945347702321489791e-01
-8.935300274626434280e-01 -6.747780476410528694e-01 9.945352375133579281e-01
-8.936633068137019853e-01 -6.734923406194260886e-01 9.946835828481388475e-01
-8.937653041136004450e-01 -6.721826934861516722e-01 9.947971099885398738e-01
-8.935781058900645890e-01 -6.706556804598462485e-01 9.945887507571941066e-01
-8.936698046663503758e-01 -6.693381356822437622e-01 9.946908152222375676e-01
-8.942434348440705394e-01 -6.683805143056257281e-01 9.953292889248659403e-01
-9.053161945980320313e-01 -6.752521448026613804e-01 1.007653720576151324e+00
-9.017719344910629653e-01 -6.712096357362005161e-01 1.003708815022945400e+00
-9.017657083992292044e-01 -6.698060748732929115e-01 1.003701885129678839e+00
-9.004631802748425118e-01 -6.674416878034592493e-01 1.002252118386827151e+00
-9.004726231711956963e-01 -6.660517664199185894e-01 1.002262628714268633e+00
-9.017411303385765020e-01 -6.655911534521875561e-01 1.003674528749213035e+00
-8.957799714382007616e-01 -6.598014752806620198e-01 9.970395166056644776e-01
-8.957799714382007616e-01 -6.584118344312925863e-01 9.970395166056644776e-01
-9.017769476968826581e-01 -6.614207586559017749e-01 1.003714394924781095e+00
-9.073748323465568033e-01 -6.641189762944903485e-01 1.009945068062253037e+00
-8.940969329166557067e-01 -6.530136858921412601e-01 9.951662263251774831e-01
-8.935490156316201471e-01 -6.512273284560633480e-01 9.945563721171910565e-01
-8.934903790234606236e-01 -6.497985045579424135e-01 9.944911071890626397e-01
-8.934573783863860585e-01 -6.483884667972460436e-01 9.944543761387091285e-01
-8.934352971698323875e-01 -6.469864387883657031e-01 9.944297988472080574e-01
-8.934251772433048355e-01 -6.455931225724484968e-01 9.944185349576651900e-01
-8.934141811367053432e-01 -6.441992059825125683e-01 9.944062958440903488e-01
-8.934092252678627055e-01 -6.428096694722987836e-01 9.944007797606403409e-01
-8.934074293526418353e-01 -6.414224170290151461e-01 9.943987808340057910e-01
-8.934053513192314888e-01 -6.400349680485344361e-01 9.943964678983597816e-01
-8.934063703904737697e-01 -6.386497394744464762e-01 9.943976021660718700e-01
-8.934094122589664178e-01 -6.372659505930728940e-01 9.944009878893388388e-01
-8.934144030799606728e-01 -6.358835394317441381e-01 9.944065428759543135e-01
-8.934196929159207157e-01 -6.345013251443414326e-01 9.944124306783795886e-01
-8.934302103559430552e-01 -6.331227989479600859e-01 9.944241370165990412e-01
-8.934358876902470659e-01 -6.317408177227132882e-01 9.944304561204309056e-01
-8.934333033752567266e-01 -6.303529899581779006e-01 9.944275796728090366e-01
-8.934370983451945802e-01 -6.289696611566257811e-01 9.944318036285939577e-01
-8.934677723979184139e-01 -6.276052014543538338e-01 9.944659450960023905e-01
-8.935894389142091665e-01 -6.263044219350133446e-01 9.946013648736905521e-01
-8.939045786233928981e-01 -6.251385674624243549e-01 9.949521281786608551e-01
-9.143062762584349690e-01 -6.379878032526641318e-01 1.017660046860207945e+00
-9.122384397453995319e-01 -6.351297279310462729e-01 1.015358460775327876e+00
-9.143139429834941101e-01 -6.351563670486179980e-01 1.017668580236807729e+00
-8.943355088156552668e-01 -6.198903318304269661e-01 9.954317709975264439e-01
-8.940069063967092111e-01 -6.182756775380580105e-01 9.950660231494077301e-01
-8.921145920801931695e-01 -7.662392738235155321e-01 9.945031732686252512e-01
-8.920951460983859160e-01 -7.648364960613200925e-01 9.944814954586371769e-01
-8.920803457775347001e-01 -7.634377544594227460e-01 9.944649964951828292e-01
-8.920770186134824309e-01 -7.620488596911112467e-01 9.944612874703137040e-01
-8.920719197970730097e-01 -7.606584645962334301e-01 9.944556034593760030e-01
-8.921145920801931695e-01 -7.593087449358210117e-01 9.945031732686252512e-01
-8.921386755385695144e-01 -7.579430999807983405e-01 9.945300208014323795e-01
-8.920980308098194200e-01 -7.565224889898226612e-01 9.944847112503079067e-01
-8.920863706787931502e-01 -7.551265389643185832e-01 9.944717128783394644e-01
-8.920921125155297782e-01 -7.537453284205984927e-01 9.944781137094722556e-01
-8.921764683336477209e-01 -7.524304003141423225e-01 9.945721511005728432e-01
-8.921052566858285182e-01 -7.509842516304796600e-01 9.944927664448810489e-01
-8.920696261716888342e-01 -7.495682215497903034e-01 9.944530465930909724e-01
-8.920562466778616528e-01 -7.481709642048418596e-01 9.944381315259169796e-01
-8.920515950920945292e-01 -7.467810550049931440e-01 9.944329460745777727e-01
-8.920494020428896276e-01 -7.453932146039180529e-01 9.944305013276667493e-01
-8.920472924162945461e-01 -7.440054505956694708e-01 9.944281495778333202e-01
-8.920334453681127984e-01 -7.426079218700790685e-01 9.944127132947824244e-01
-8.920301283672233961e-01 -7.412191859600512078e-01 9.944090155995093383e-01
-8.920273914768285239e-01 -7.398309414903387893e-01 9.944059645943955639e-01
-8.920273914768285239e-01 -7.384449711990492826e-01 9.944059645943955639e-01
-8.920412408749439637e-01 -7.370704443047177978e-01 9.944214034970834115e-01
-8.920466066972964070e-01 -7.356888777974096572e-01 9.944273851584127799e-01
-8.920486934920636157e-01 -7.343045954303752954e-01 9.944297114559942363e-01
-8.920582943878793136e-01 -7.329264802600331530e-01 9.944404142529663648e-01
-8.920793147303797133e-01 -7.315576998756804228e-01 9.944638471140644365e-01
-8.921113433221471434e-01 -7.301978644818178932e-01 9.944995516484714804e-01
-8.921212606964142866e-01 -7.288198657664654023e-01 9.945106072463362201e-01
-8.920992584328798491e-01 -7.274158090295161916e-01 9.944860797684782483e-01
-8.920939767435132062e-01 -7.260254286045527694e-01 9.944801918961331255e-01
-8.921022639349043271e-01 -7.246460864635336785e-01 9.944894302139558606e-01
-8.921095216624336244e-01 -7.232658839463065314e-01 9.944975209156690088e-01
-8.920891889819625442e-01 -7.218633331891137761e-01 9.944748546400258293e-01
-8.920954994348182510e-01 -7.204823633870597321e-01 9.944818893477254118e-01
-8.921224168128910614e-01 -7.191179847121765834e-01 9.945118960510649364e-01
-8.920765475867236116e-01 -7.176949639880938481e-01 9.944607623835025612e-01
-8.920868895350767547e-01 -7.163172215749897820e-01 9.944722912841016393e-01
-8.921511776273503003e-01 -7.149826802339579457e-01 9.945439577632031458e-01
-8.923272089951505004e-01 -7.137373181562353119e-01 9.947401923673965252e-01
-8.922318495706235142e-01 -7.122747559518878280e-01 9.946338884787088164e-01
-8.921875244878179068e-01 -7.108531518418561568e-01 9.945844761768624087e-01
-8.921875244878179068e-01 -7.094669327470007891e-01 9.945844761768624087e-01
-8.921787810138892549e-01 -7.080737744324304694e-01 9.945747292086536406e-01
-8.921447812745992856e-01 -7.066606380051277947e-01 9.945368272968205803e-01
-8.921621619692395866e-01 -7.052882254239069004e-01 9.945562027852687947e-01
-8.921080397705626330e-01 -7.038593441640519366e-01 9.944958689460889900e-01
-8.920999140080190237e-01 -7.024668500922374159e-01 9.944868105844091311e-01
-8.921443507302410092e-01 -7.011156889165756079e-01 9.945363473386016340e-01
-8.922177847469630052e-01 -6.997871329071421176e-01 9.946182094259437001e-01
-8.926296647562333986e-01 -6.987232739037749774e-01 9.950773611760233006e-01
-8.929287213572522086e-01 -6.975699955738583480e-01 9.954107407007396491e-01
-9.108063103095757063e-01 -7.101211022593030275e-01 1.015340152349551328e+00
-9.074198553674454049e-01 -7.060709258703558033e-01 1.011565031736147979e+00
-9.109784449804406714e-01 -7.074244788796310024e-01 1.015532043030327625e+00
-8.930451466336581934e-01 -6.921107424007680864e-01 9.955405281830455033e-01
-8.925101098051455573e-01 -6.903093681015344263e-01 9.949440848242044888e-01
-8.922271057663231364e-01 -6.887041988511285462e-01 9.946286002248545532e-01
-8.921594713759573025e-01 -6.872658168048828564e-01 9.945532033908176528e-01
-8.921594713759573025e-01 -6.858796412970068479e-01 9.945532033908176528e-01
-8.921424010104289648e-01 -6.844803688551884813e-01 9.945341738481585647e-01
-8.921319940917579183e-01 -6.830862515165992965e-01 9.945225725205554257e-01
-8.921306773826329639e-01 -6.816991125710176735e-01 9.945211046918540632e-01
-8.921229585869088208e-01 -6.803070956714859507e-01 9.945125000048447017e-01
-8.920642282225482722e-01 -6.788762820731997216e-01 9.944470291177610610e-01
-8.920094995709197949e-01 -6.774486901321548071e-01 9.943860192226237071e-01
-8.920958973385370028e-01 -6.761282293554455869e-01 9.944823329191166961e-01
-8.921204496128037897e-01 -6.747607228863290452e-01 9.945097030741237853e-01
-8.922923369319688547e-01 -6.735043489594627619e-01 9.947013180144821387e-01
-8.922187102912433332e-01 -6.720625078491441196e-01 9.946192411955526724e-01
-8.923525602560513637e-01 -6.707768546337746773e-01 9.947684532092615495e-01
-8.926174177284903477e-01 -6.695890596077485046e-01 9.950637085488140965e-01
-9.129523600873784561e-01 -6.834246546744445761e-01 1.017732505678332400e+00
-9.060441417948720266e-01 -6.768455007987121963e-01 1.010031426607862048e+00
-9.039162439860183307e-01 -6.738514470756086228e-01 1.007659308561499989e+00
-9.024463814174278342e-01 -6.713535353888470114e-01 1.006020748894715933e+00
-9.039660218612152187e-01 -6.710795160698378448e-01 1.007714799476323364e+00
-9.038538831910424287e-01 -6.695919219310036974e-01 1.007589790576880473e+00
-9.059575336121855615e-01 -6.697427316683648435e-01 1.009934878346823162e+00
-9.024479338411464102e-01 -6.657460462485208508e-01 1.006022479491130550e+00
-9.032403771280630433e-01 -6.649272483720510829e-01 1.006905872017685111e+00
-8.924423132623362509e-01 -6.555915568616627054e-01 9.948685072273811825e-01
-8.921436069213917186e-01 -6.539859751755897621e-01 9.945355181623193319e-01
-8.920969164438841137e-01 -6.525656704012424703e-01 9.944834689878579992e-01
-8.920771017658265523e-01 -6.511651285081635487e-01 9.944613801661074115e-01
-8.920633548291094783e-01 -6.497690678640203332e-01 9.944460554843801425e-01
-8.920487718859583248e-01 -6.483724422990519987e-01 9.944297988472080574e-01
-8.920362974506343967e-01 -6.469773913116576569e-01 9.944158927126995895e-01
-8.920273917163997757e-01 -6.455849618560365322e-01 9.944059648614623770e-01
-8.920260939645571208e-01 -6.441980543617328303e-01 9.944045181657833465e-01
-8.920220458342361658e-01 -6.428091689216566262e-01 9.944000054288707480e-01
-8.920220458342361658e-01 -6.414232069360558119e-01 9.944000054288707480e-01
-8.920213675899163475e-01 -6.400367583014670014e-01 9.943992493420021894e-01
-8.920213675899163475e-01 -6.386507973696752272e-01 9.943992493420021894e-01
-8.920289738751194797e-01 -6.372702704087185310e-01 9.944077286055837961e-01
-8.920365873209209484e-01 -6.358897249159691789e-01 9.944162158515903460e-01
-8.920471266360985307e-01 -6.345112369294390042e-01 9.944279647709347580e-01
-8.920650300222923157e-01 -6.331379427987707809e-01 9.944479229405913667e-01
-8.920690035118263861e-01 -6.317547280145675570e-01 9.944523524701447403e-01
-8.920672336262389646e-01 -6.303674424032806867e-01 9.944503794536189156e-01
-8.920825503193361428e-01 -6.289922097474083262e-01 9.944674540537034035e-01
-8.921822542414533652e-01 -6.276762983781407623e-01 9.945786010608402838e-01
-8.925270479410273294e-01 -6.265321242028207838e-01 9.949629669611330662e-01
-9.129230654317939120e-01 -6.394311923178084278e-01 1.017699848855770250e+00
-9.129430881799155406e-01 -6.380267490364052163e-01 1.017722169627923723e+00
-8.927088490395059805e-01 -6.224986568421740918e-01 9.951656334918073110e-01
-8.927088490395059805e-01 -6.211116277493884397e-01 9.951656334918073110e-01
-8.925035749098237936e-01 -6.195820959495123015e-01 9.949367999146288000e-01
-8.923814931046627486e-01 -6.181108254541883840e-01 9.948007067000250725e-01
-8.907133092331558366e-01 -7.662266667935907494e-01 9.944868105844166806e-01
-8.906896928354320897e-01 -7.648203048170789664e-01 9.944604427331603658e-01
-8.906853585340416268e-01 -7.634305435488443203e-01 9.944556034593771132e-01
-8.906805930243631986e-01 -7.620404268409727289e-01 9.944502827389254396e-01
-8.906846515036631606e-01 -7.606578607818377247e-01 9.944548140556723759e-01
-8.907022747643190685e-01 -7.592868455065038269e-01 9.944744905330531459e-01
-8.907393795401665759e-01 -7.579323522520211576e-01 9.945159182402709686e-01
-8.907003050043454939e-01 -7.565130408971136866e-01 9.944722912840989748e-01
-8.907049589356090813e-01 -7.551309237191242696e-01 9.944774874265737141e-01
-8.907207312969604995e-01 -7.537582008506958919e-01 9.944950973636581537e-01
-8.908167470307025715e-01 -7.524532086963029442e-01 9.946022995125710642e-01
-8.907200702647803947e-01 -7.509854544768777007e-01 9.944943593172208551e-01
-8.906992926628932716e-01 -7.495818752691542075e-01 9.944711609987292311e-01
-8.906984179578739669e-01 -7.481950793487894824e-01 9.944701843852714607e-01
-8.906673420989978940e-01 -7.467829638939343928e-01 9.944354880004083741e-01
-8.906650654200672923e-01 -7.453950471078049089e-01 9.944329460745777727e-01
-8.906607694319833568e-01 -7.440054505956694708e-01 9.944281495778333202e-01
-8.906595016556275723e-01 -7.426183923309712664e-01 9.944267340978449887e-01
-8.906516005591299523e-01 -7.412258175726191833e-01 9.944179124756973298e-01
-8.906443197253913757e-01 -7.398337826400838146e-01 9.944097833806808673e-01
-8.906443197253913757e-01 -7.384478070262957550e-01 9.944097833806808673e-01
-8.906479109811088479e-01 -7.370648033929690923e-01 9.944137930394649771e-01
-8.906507868968429609e-01 -7.356811977088254517e-01 9.944170040168202052e-01
-8.906576236422395487e-01 -7.343008485718532929e-01 9.944246372845099158e-01
-8.906803720372002964e-01 -7.329335717227868363e-01 9.944500360054182586e-01
-8.907123552615698880e-01 -7.315738089685097645e-01 9.944857454693566412e-01
-8.907105019064825990e-01 -7.301862081387604508e-01 9.944836761871638231e-01
-8.907597921663509277e-01 -7.288404599770963443e-01 9.945387090611775838e-01
-8.907123552615698880e-01 -7.274155645067713616e-01 9.944857454693566412e-01
-8.907110577138392937e-01 -7.260284253740322269e-01 9.944842967494477159e-01
-8.906924844858594703e-01 -7.246272355653237129e-01 9.944635596277897616e-01
-8.906892156863009946e-01 -7.232385307388139450e-01 9.944599099932623920e-01
-8.906899791306458480e-01 -7.218531039880248246e-01 9.944607623835025612e-01
-8.907136356216257544e-01 -7.204861927364439866e-01 9.944871749991224252e-01
-8.907738522885008114e-01 -7.191487239966748435e-01 9.945544072728110807e-01
-8.907341183553403319e-01 -7.177305302345093896e-01 9.945100440955114696e-01
-8.907031523336698120e-01 -7.163195114484941506e-01 9.944754703445543020e-01
-8.907470767327443362e-01 -7.149687007220085766e-01 9.945245122024558571e-01
-8.907520105160469104e-01 -7.135865176849188751e-01 9.945300208014290488e-01
-8.907264986823579811e-01 -7.121799765128747906e-01 9.945015366844248694e-01
-8.907357770615614845e-01 -7.108012771017813147e-01 9.945118960510649364e-01
-8.907306838881765554e-01 -7.094111027736742514e-01 9.945062094920981144e-01
-8.907548181105047203e-01 -7.080441766017271377e-01 9.945331554976649668e-01
-8.907969542645904903e-01 -7.066914566986325363e-01 9.945802007691936231e-01
-8.908574221065372889e-01 -7.053531201139021656e-01 9.946477134813730414e-01
-8.907902566540297773e-01 -7.039137378901122455e-01 9.945727228463918657e-01
-8.907982033820992518e-01 -7.025338024154890171e-01 9.945815954164662909e-01
-8.908459836286967137e-01 -7.011851951850813780e-01 9.946349423515069565e-01
-8.909705283143584120e-01 -6.998967411090246671e-01 9.947739972482231297e-01
-8.913810192735353022e-01 -6.988320778775276576e-01 9.952323128931492846e-01
-8.915960772820937796e-01 -6.976132240981645083e-01 9.954724264637055953e-01
-9.094241998449015263e-01 -7.101473162219645863e-01 1.015377633405610158e+00
-9.060236330535536009e-01 -7.060819879102768759e-01 1.011580879963789092e+00
-8.916147898473979483e-01 -6.934654079756009670e-01 9.954933191563309913e-01
-9.080232759768238626e-01 -7.048143091293365137e-01 1.013813493412422551e+00
-8.915109328765906671e-01 -6.906099834315432284e-01 9.953773622186895542e-01
-8.908853715315332433e-01 -6.887390408799375363e-01 9.946789191838519839e-01
-8.907838549865345623e-01 -6.872743661934214154e-01 9.945655753458170212e-01
-8.907581067618439707e-01 -6.858683477539018192e-01 9.945368272968260204e-01
-8.907432015833230965e-01 -6.844707415353072921e-01 9.945201855746300668e-01
-8.907494433706724113e-01 -6.830893986886551472e-01 9.945271545680526293e-01
-8.906317196978655870e-01 -6.816131638801233850e-01 9.943957153735482057e-01
-8.906863576243764236e-01 -6.802689380338947656e-01 9.944567189497939275e-01
-8.907858187437313058e-01 -6.789587064640301151e-01 9.945677678926344578e-01
-8.906887597271967438e-01 -6.774986831212893579e-01 9.944594009121577871e-01
-8.907199385668725933e-01 -6.761363058873982590e-01 9.944942122757083336e-01
-8.907625527246225694e-01 -6.747824942524236480e-01 9.945417912412263250e-01
-8.908341418448477711e-01 -6.734504544054753516e-01 9.946217209280372451e-01
-8.909795110166012222e-01 -6.721738529885538105e-01 9.947840264897435114e-01
-8.910373065340136955e-01 -6.708308679935540697e-01 9.948485555353767662e-01
-8.913413027926140320e-01 -6.696726759358121450e-01 9.951879692013805290e-01
-9.080508255439542209e-01 -6.808136267728294166e-01 1.013844252671169954e+00
-9.024821641376586934e-01 -6.752341103593438865e-01 1.007626808445553523e+00
-9.029914012137002510e-01 -6.742099303044439829e-01 1.008195374728704685e+00
-8.915749802265156010e-01 -6.642985444352216273e-01 9.954488714732308008e-01
-8.912485480760231615e-01 -6.626684090725759591e-01 9.950844079978899970e-01
-8.911641079821603917e-01 -6.612188410014719908e-01 9.949901301210910542e-01
-8.909907670352498199e-01 -6.597037121298985340e-01 9.947965939028154958e-01
-8.908234742397784789e-01 -6.581935914826803069e-01 9.946098104822946873e-01
-8.907355144030383309e-01 -6.567424839751424548e-01 9.945116027912310752e-01
-8.906842592828076999e-01 -6.553186556257757367e-01 9.944543761387091285e-01
-8.906741529988250194e-01 -6.539251979144798943e-01 9.944430924113630832e-01
-8.906725851224501778e-01 -6.525380271943463928e-01 9.944413418678837990e-01
-8.906653003406274083e-01 -6.511466818444925364e-01 9.944332083648075304e-01
-8.906577121221205262e-01 -6.497551378030667069e-01 9.944247360728335483e-01
-8.906514130578724320e-01 -6.483645558397951314e-01 9.944177031294063607e-01
-8.906462656888108897e-01 -6.469748300846097644e-01 9.944119560606381469e-01
-8.906406087385256853e-01 -6.455847509773902093e-01 9.944056400413437968e-01
-8.906414173634316089e-01 -6.441993660154199386e-01 9.944065428759543135e-01
-8.906353117204199865e-01 -6.428089882186138748e-01 9.943997258885104440e-01
-8.906376161325353369e-01 -6.414246862278260020e-01 9.944022987786099721e-01
-8.906393231110190101e-01 -6.400399477314152596e-01 9.944042046304372162e-01
-8.906406087385256853e-01 -6.386549017826993468e-01 9.944056400413437968e-01
-8.906535492734286574e-01 -6.372781911228010410e-01 9.944200882270277653e-01
-8.906621720659878561e-01 -6.358983574869839783e-01 9.944297156272042804e-01
-8.906705183683142346e-01 -6.345183000413832097e-01 9.944390343243593167e-01
-8.906925502346725310e-01 -6.331479449896609824e-01 9.944636330367382371e-01
-8.907032654982208753e-01 -6.317694945822598385e-01 9.944755966934616387e-01
-8.907396830793733455e-01 -6.304092013002808859e-01 9.945162571436357846e-01
-8.907847061159631652e-01 -6.290548716815292929e-01 9.945665256369847773e-01
-8.911689054568029400e-01 -6.279393938521828922e-01 9.949954865306189777e-01
-9.095365406122705165e-01 -6.394663038157101242e-01 1.015503062553554159e+00
-8.915717502748823353e-01 -6.254484104892978902e-01 9.954452652126475343e-01
-8.913038694172510379e-01 -6.238734868427590063e-01 9.951461746108108963e-01
-8.910511378959264928e-01 -6.223099772156249765e-01 9.948639983348186444e-01
-8.909941355975378174e-01 -6.208836468396821129e-01 9.948003549230353126e-01
-8.909768174405864327e-01 -6.194850857612745898e-01 9.947810190957907528e-01
-8.910312741662537173e-01 -6.181363710717722171e-01 9.948418203601956389e-01
-8.893250902964054960e-01 -7.662252760629727488e-01 9.944850055529336208e-01
-8.893056406347571441e-01 -7.648224684689327590e-01 9.944632560295214585e-01
-8.892967190024234636e-01 -7.634287594311539582e-01 9.944532794420196664e-01
-8.892867664280709183e-01 -7.620341947841776653e-01 9.944421500068241215e-01
-8.892833169150763384e-01 -7.606452235305635190e-01 9.944382925996880784e-01
-8.893098378625717837e-01 -7.592818514418312459e-01 9.944679495664204838e-01
-8.893482918077536548e-01 -7.579285663321364552e-01 9.945109505705582720e-01
-8.893098378625717837e-01 -7.565097380740259947e-01 9.944679495664204838e-01
-8.893238499406146413e-01 -7.551355792141496437e-01 9.944836185289430697e-01
-8.893539811850699195e-01 -7.537750385316729362e-01 9.945173126989788059e-01
-8.894473489656050669e-01 -7.524679017111890467e-01 9.946217209280471261e-01
-8.893154868383210676e-01 -7.509702815386110064e-01 9.944742665159148620e-01
-8.892935433571246273e-01 -7.495657203788008704e-01 9.944497282865792931e-01
-8.892986679319806465e-01 -7.481840004940865096e-01 9.944554588264120643e-01
-8.892965107756595211e-01 -7.467961497245322322e-01 9.944530465930909724e-01
-8.892831728737432551e-01 -7.453989339558428906e-01 9.944381315259169796e-01
-8.892785357480401665e-01 -7.440090392106167849e-01 9.944329460745777727e-01
-8.892785357480401665e-01 -7.426230313134285499e-01 9.944329460745777727e-01
-8.892793886673669990e-01 -7.412377343469078728e-01 9.944338998489520298e-01
-8.892693625901295640e-01 -7.398433837479895248e-01 9.944226882193848427e-01
-8.892592901297252661e-01 -7.384490258848667166e-01 9.944114247219862923e-01
-8.892630139976623882e-01 -7.370661345134034148e-01 9.944155889256802716e-01
-8.892689185238729088e-01 -7.356850355751590742e-01 9.944221916436798425e-01
-8.892684826300844003e-01 -7.342986827350851398e-01 9.944217042068117518e-01
-8.892914716868245417e-01 -7.329316375081144086e-01 9.944474116477344250e-01
-8.893054197564136398e-01 -7.315570833578903809e-01 9.944630090330034422e-01
-8.893767703498212107e-01 -7.302296165117320159e-01 9.945427966113089546e-01
-8.893633111265623059e-01 -7.288324256872468210e-01 9.945277458769224976e-01
-8.893300256565390693e-01 -7.274190601266876666e-01 9.944905245039937780e-01
-8.893195129351022521e-01 -7.260243895826551386e-01 9.944787686860699916e-01
-8.892844527108667574e-01 -7.246097499295414135e-01 9.944395626997845072e-01
-8.892844527108667574e-01 -7.232237328103187091e-01 9.944395626997845072e-01
-8.892940391799684097e-01 -7.218454970876300170e-01 9.944502827389263278e-01
-8.892940391799684097e-01 -7.204594650271698431e-01 9.944502827389263278e-01
-8.892992584812742241e-01 -7.190776532366568441e-01 9.944561192063157140e-01
-8.893443660485498281e-01 -7.177280162234750405e-01 9.945065606025857985e-01
-8.893814132549271445e-01 -7.163717462088855514e-01 9.945479885254475683e-01
-8.894000503739115659e-01 -7.150005605977939327e-01 9.945688294255626838e-01
-8.893270303386555664e-01 -7.135557753380556978e-01 9.944871749991224252e-01
-8.893088140530434060e-01 -7.121551043263807390e-01 9.944668046946120166e-01
-8.893067048223777249e-01 -7.107673634616908931e-01 9.944644460540055242e-01
-8.893198474772999740e-01 -7.093917952811279459e-01 9.944791427868380218e-01
-8.893459620692055756e-01 -7.080265133573140357e-01 9.945083453477010504e-01
-8.893586848168717474e-01 -7.066505093814170468e-01 9.945225725205554257e-01
-8.893976835946061366e-01 -7.052953027254814655e-01 9.945661827819939349e-01
-8.894035320924001953e-01 -7.039137378901122455e-01 9.945727228463918657e-01
-8.894489601428529069e-01 -7.025634181647104626e-01 9.946235226219741765e-01
-8.894761495984774280e-01 -7.011985788459095259e-01 9.946539271458347820e-01
-8.897200919456341728e-01 -7.000041892297164114e-01 9.949267149139005006e-01
-9.101235716352611416e-01 -7.146385181291806665e-01 1.017742842372617362e+00
-9.066355646799828527e-01 -7.104866385587955691e-01 1.013842389485212214e+00
-9.004741995712317593e-01 -7.042548161993278377e-01 1.006952462189505404e+00
-9.045777042756995012e-01 -7.060542868253064652e-01 1.011541193513220804e+00
-8.900614292087293267e-01 -6.933366023282379054e-01 9.953084142426255054e-01
-8.900680038405857086e-01 -6.919544854665226064e-01 9.953157663041714009e-01
-8.897407691736352042e-01 -6.903133591710232109e-01 9.949498371595536517e-01
-8.894984989012243437e-01 -6.887390408799375363e-01 9.946789191838519839e-01
-8.894047663490060041e-01 -6.872802590904051323e-01 9.945741030499877233e-01
-8.893714322490836599e-01 -6.858683477539018192e-01 9.945368272968260204e-01
-8.893600236739991338e-01 -6.844734147496516208e-01 9.945240696933578262e-01
-8.893502970406637065e-01 -6.830798091500870362e-01 9.945131929159993778e-01
-8.892378564520028172e-01 -6.816075028508818967e-01 9.943874565787937936e-01
-8.892964444545934377e-01 -6.802663751861084407e-01 9.944529724297660467e-01
-8.895687266743719235e-01 -6.790881970006135138e-01 9.947574511719073920e-01
-8.893728825215773126e-01 -6.775525365171021219e-01 9.945384490595140514e-01
-8.893479090976906809e-01 -6.761473949480357737e-01 9.945105226062254111e-01
-8.893728825215773126e-01 -6.747802266295525042e-01 9.945384490595140514e-01
-8.894496119885960672e-01 -6.734521678670639666e-01 9.946242515464411849e-01
-8.899473250079017461e-01 -6.724419640421955835e-01 9.951808175763089404e-01
-8.896911306658886742e-01 -6.708617332831041669e-01 9.948943290532485939e-01
-8.898204810294322309e-01 -6.695724159307344658e-01 9.950389746934205082e-01
-9.066632414903672554e-01 -6.808331587310462174e-01 1.013873338992011375e+00
-9.032608627559547410e-01 -6.768704380852299529e-01 1.010068639595238960e+00
-9.033593004653824865e-01 -6.755362498461984222e-01 1.010178717256462022e+00
-8.902238918509778332e-01 -6.643260494170346586e-01 9.954900875850754005e-01
-8.897678727431490575e-01 -6.625989764000772553e-01 9.949801456415392487e-01
-8.894398705231661983e-01 -6.609684579106327451e-01 9.946133581831393400e-01
-8.893273863979417326e-01 -6.594987836736216913e-01 9.944875731613075365e-01
-8.892898090428490443e-01 -6.580848919553676790e-01 9.944455524012999481e-01
-8.892745399339240242e-01 -6.566875909662145405e-01 9.944284777679182064e-01
-8.892626453763131655e-01 -6.552928242617609422e-01 9.944151767160073208e-01
-8.892674266437935460e-01 -6.539103569690478679e-01 9.944205233534390009e-01
-8.892685424213062628e-01 -6.525251851185944751e-01 9.944217710681589883e-01
-8.892597652829874466e-01 -6.511327660106034365e-01 9.944119560606381469e-01
-8.892619395517896708e-01 -6.497483760204531000e-01 9.944143874299375963e-01
-8.892625738829305071e-01 -6.483628564816074080e-01 9.944150967687552800e-01
-8.892582722370114823e-01 -6.469737438292720855e-01 9.944102864666369834e-01
-8.892568345711098221e-01 -6.455867237910652978e-01 9.944086788012312939e-01
-8.892582722370114823e-01 -6.442017911993265233e-01 9.944102864666369834e-01
-8.892546316219812619e-01 -6.428131832024338577e-01 9.944062153602464260e-01
-8.892551548855291976e-01 -6.414275899962496030e-01 9.944068004980751718e-01
-8.892600342151326664e-01 -6.400451304385986750e-01 9.944122567931699130e-01
-8.892663370876338069e-01 -6.386636780479936215e-01 9.944193049606652179e-01
-8.892744399574091796e-01 -6.372834959480022654e-01 9.944283659694925781e-01
-8.892849505877613581e-01 -6.359050103183809810e-01 9.944401194490672946e-01
-8.893086366689125777e-01 -6.345358928197698534e-01 9.944666063353615471e-01
-8.893324801796111956e-01 -6.331668135711849832e-01 9.944932692667554086e-01
-8.893720375843605641e-01 -6.318088231301549618e-01 9.945375042111094244e-01
-8.894737136196695371e-01 -6.304947415663696431e-01 9.946512031201384385e-01
-8.900053711827620173e-01 -6.294844611043727278e-01 9.952457275301132000e-01
-9.066352736667120382e-01 -6.398334261674307744e-01 1.013842064060530790e+00
-9.101173976349252737e-01 -6.408723545341711292e-01 1.017735938316018496e+00
-8.897242598209361697e-01 -6.251255284228850462e-01 9.949313756274437148e-01
-8.896177948959728132e-01 -6.236641888785309229e-01 9.948123215575108702e-01
-8.895931185901693183e-01 -6.222603914216272569e-01 9.947847273555908698e-01
-8.895396320677921853e-01 -6.208365633646110160e-01 9.947249162189396587e-01
-8.895700390792085077e-01 -6.194713231086396155e-01 9.947589187645184960e-01
-8.896480200044946107e-01 -6.181390430450107720e-01 9.948461206907456278e-01
-8.879417420007561512e-01 -7.662280839920501130e-01 9.944886499685531289e-01
-8.879203591853050970e-01 -7.648235800463362155e-01 9.944647013621699116e-01
-8.879072650364433494e-01 -7.634262694873481525e-01 9.944500360054149279e-01
-8.879072650364433494e-01 -7.620402377707770070e-01 9.944500360054149279e-01
-8.878921291400739824e-01 -7.606412394036455860e-01 9.944330839054804638e-01
-8.879053459796966141e-01 -7.592665333118543414e-01 9.944478866750444679e-01
-8.879134083010337131e-01 -7.578873862661082983e-01 9.944569164195454780e-01
-8.879254387225804512e-01 -7.565115948670920742e-01 9.944703904090165247e-01
-8.879440936752758251e-01 -7.551413996618947522e-01 9.944912838278566758e-01
-8.879673338813528494e-01 -7.537750385316729362e-01 9.945173126989788059e-01
-8.880278908381349368e-01 -7.524402239243339618e-01 9.945851360744862868e-01
-8.879398087683736396e-01 -7.509795080612945428e-01 9.944864847615680903e-01
-8.879140122987291273e-01 -7.495716483197217839e-01 9.944575928928143238e-01
-8.879009420565228128e-01 -7.481745926538249103e-01 9.944429543113493253e-01
-8.878911688477322262e-01 -7.467803508357758746e-01 9.944320083846558411e-01
-8.878898232528797951e-01 -7.453932146039180529e-01 9.944305013276667493e-01
-8.878898232528797951e-01 -7.440072101141376182e-01 9.944305013276667493e-01
-8.878898232528797951e-01 -7.426212056243572945e-01 9.944305013276667493e-01
-8.878898232528797951e-01 -7.412352011345766378e-01 9.944305013276667493e-01
-8.878904397543958549e-01 -7.398497103551007203e-01 9.944311918051287336e-01
-8.878842983969689184e-01 -7.384585970998354121e-01 9.944243135270081080e-01
-8.878891180059884647e-01 -7.370766022081419733e-01 9.944297114559942363e-01
-8.878953107872232797e-01 -7.356957300578813586e-01 9.944366473284264041e-01
-8.879059953858990939e-01 -7.343185534093346067e-01 9.944486140055291967e-01
-8.879099806499181069e-01 -7.329358133581014290e-01 9.944530774738477019e-01
-8.879006358278144218e-01 -7.315420781956666341e-01 9.944426113373000531e-01
-8.879926698925409978e-01 -7.302317401043814105e-01 9.945456888574252252e-01
-8.879332893857170284e-01 -7.287968368077388792e-01 9.944791830977873781e-01
-8.879273995441765432e-01 -7.274059394038241422e-01 9.944725865157313383e-01
-8.879329193729850189e-01 -7.260243895826551386e-01 9.944787686860699916e-01
-8.878988632686790616e-01 -7.246105247760521451e-01 9.944406260832476807e-01
-8.878931823567198789e-01 -7.232198788743418039e-01 9.944342635008870390e-01
-8.879004234573800725e-01 -7.218397559658816798e-01 9.944423734838726547e-01
-8.879004234573800725e-01 -7.204537349290809356e-01 9.944423734838726547e-01
-8.879024181923012016e-01 -7.190693293318515256e-01 9.944446075732784607e-01
-8.879454174485972295e-01 -7.177180610820640405e-01 9.944927664448810489e-01
-8.880306292511852551e-01 -7.164007127039898615e-01 9.945882030782868810e-01
-8.879648680714083975e-01 -7.149615395695079201e-01 9.945145510087837204e-01
-8.879608440170140282e-01 -7.135721841728956960e-01 9.945100440955114696e-01
-8.879430659130902459e-01 -7.121718099493571374e-01 9.944901327412706271e-01
-8.879276764392561860e-01 -7.107734032936162683e-01 9.944728966363179934e-01
-8.879404250556852674e-01 -7.093975248990226357e-01 9.944871749991224252e-01
-8.879665287587269473e-01 -7.080322555639604332e-01 9.945164109671699171e-01
-8.879862057475954584e-01 -7.066617903363632269e-01 9.945384490595016169e-01
-8.880330432030862919e-01 -7.053128356508442387e-01 9.945909066878297899e-01
-8.880417702202445529e-01 -7.039335253309653151e-01 9.946006808870835325e-01
-8.880561724608339036e-01 -7.025586775458775302e-01 9.946168112975853903e-01
-8.880759693501111274e-01 -7.011880441881377379e-01 9.946389836775507698e-01
-8.882312074524335577e-01 -6.999240763774930985e-01 9.948128492855067284e-01
-8.888262953362076058e-01 -6.990055378812157771e-01 9.954793436264682827e-01
-9.051837882782856060e-01 -7.104566686314949253e-01 1.013799623328808686e+00
-9.020832721281180078e-01 -7.066149885598991265e-01 1.010327066544353336e+00
-9.002460686317977911e-01 -7.037705875494465468e-01 1.008269411251950798e+00
-8.886857779157772974e-01 -6.933460419071283409e-01 9.953219650810853913e-01
-8.882256787942318654e-01 -6.916005472270760901e-01 9.948066572263083440e-01
-8.881096686846757793e-01 -6.901238704237268040e-01 9.946767267007141644e-01
-8.880771131433433663e-01 -6.887122756201676799e-01 9.946402647181118439e-01
-8.880075792649687605e-01 -6.872721631259295361e-01 9.945623872521015540e-01
-8.879847577363233491e-01 -6.858683477539018192e-01 9.945368272968260204e-01
-8.879686037563038203e-01 -6.844697431543848021e-01 9.945187349501986018e-01
-8.879698989646350737e-01 -6.830846120465764448e-01 9.945201855746300668e-01
-8.879332533935789806e-01 -6.816703495882364683e-01 9.944791427868401312e-01
-8.879084403481372068e-01 -6.802652669504808403e-01 9.944513523464364457e-01
-8.879362926531259026e-01 -6.789005287835354618e-01 9.944825467366498195e-01
-8.879510351096917553e-01 -6.775257005653992914e-01 9.944990581867076962e-01
-8.879707196100480315e-01 -6.761545894919529509e-01 9.945211046918540632e-01
-8.879814793241027626e-01 -6.747766350229459364e-01 9.945331554976649668e-01
-8.880651214720538533e-01 -6.734539165129401761e-01 9.946268341286628178e-01
-8.882876556563242820e-01 -6.722360472285445754e-01 9.948760708860070467e-01
-8.883867355055901083e-01 -6.709242484474722268e-01 9.949870396364043357e-01
-8.886459405212198126e-01 -6.697328195349255830e-01 9.952773474729048608e-01
-9.052313520807889757e-01 -6.808194298812698664e-01 1.013852894460800291e+00
-9.001960510995531406e-01 -6.756271935860674871e-01 1.008213391959508654e+00
-9.086472462017238794e-01 -6.805516906675868061e-01 1.017678672405544438e+00
-8.883086985180380646e-01 -6.639320218428994558e-01 9.948996387465404156e-01
-8.879644936677889566e-01 -6.622886381730093142e-01 9.945141316793025821e-01
-8.879030350444085951e-01 -6.608567741230603199e-01 9.944452984434004605e-01
-8.878822495956687488e-01 -6.594553110676684149e-01 9.944220188836292440e-01
-8.878752502398890023e-01 -6.580641307065874246e-01 9.944141796532486310e-01
-8.878706499950930198e-01 -6.566747465952816887e-01 9.944090274106854865e-01
-8.878703387347423037e-01 -6.552885423108966156e-01 9.944086788012312939e-01
-8.878748130848780340e-01 -6.539058635252794627e-01 9.944136900426400194e-01
-8.878703387347423037e-01 -6.525165941623732868e-01 9.944086788012312939e-01
-8.878703387347423037e-01 -6.511306200881117334e-01 9.944086788012312939e-01
-8.878748130848780340e-01 -6.497479203489847643e-01 9.944136900426400194e-01
-8.878777265878430303e-01 -6.483640668473987789e-01 9.944169531459420286e-01
-8.878770682852761276e-01 -6.469776015492032517e-01 9.944162158515903460e-01
-8.878689565206583367e-01 -6.455857187579843171e-01 9.944071307309546581e-01
-8.878816290529536470e-01 -6.442089414888890753e-01 9.944213238800519994e-01
-8.878750931954296766e-01 -6.428182178541429481e-01 9.944140037645332608e-01
-8.878753846686218143e-01 -6.414324469286217800e-01 9.944143302125056927e-01
-8.878790774021386722e-01 -6.400491269739596589e-01 9.944184660486717897e-01
-8.878954583164209158e-01 -6.386749222664054315e-01 9.944368125601140695e-01
-8.879104864989059154e-01 -6.372996954911150924e-01 9.944536440212382589e-01
-8.879181140406364747e-01 -6.359191215239202721e-01 9.944621868155675282e-01
-8.879602185381691992e-01 -6.345631620161837905e-01 9.945093435635028456e-01
-8.880158988618703786e-01 -6.332167515603719377e-01 9.945717051434670442e-01
-8.882857689573678828e-01 -6.320225650380224547e-01 9.948739577961395186e-01
-8.888914422960561001e-01 -6.310659385286795375e-01 9.955523077738720472e-01
-9.066872345516335807e-01 -6.422846629423339948e-01 1.015483472824737499e+00
-8.888384323870568426e-01 -6.282533337399278661e-01 9.954929370400252830e-01
-8.883794754262385185e-01 -6.265421625884372014e-01 9.949789083974147630e-01
-8.881830549061674462e-01 -6.250171720174183543e-01 9.947589187645460296e-01
-8.881098496202665116e-01 -6.235793092775131496e-01 9.946769293473325391e-01
-8.881225072865233106e-01 -6.222018290460223922e-01 9.946911058465691680e-01
-8.881798526596453858e-01 -6.208555469012443373e-01 9.947553322704441037e-01
-8.881798526596453858e-01 -6.194690896727913509e-01 9.947553322704441037e-01
-8.882199823071419420e-01 -6.181105585880012354e-01 9.948002771999083782e-01
-8.866144964024932351e-01 -7.662793889041513706e-01 9.945552386956414415e-01
-8.865790839726512829e-01 -7.648626598215696459e-01 9.945155149851029330e-01
-8.865469357127392369e-01 -7.634488524062886805e-01 9.944794528403486655e-01
-8.865196275727144082e-01 -7.620393060117331974e-01 9.944488200751152585e-01
-8.865093213275445638e-01 -7.606444330055821545e-01 9.944372590977498261e-01
-8.865104432124089051e-01 -7.592593799448412728e-01 9.944385175663102983e-01
-8.865052648873492647e-01 -7.578689373579788890e-01 9.944327088068815046e-01
-8.865017891244888482e-01 -7.564799638133069548e-01 9.944288098878187876e-01
-8.865256747449439256e-01 -7.551143066910129820e-01 9.944556034593760030e-01
-8.865478373889608132e-01 -7.537471099981124523e-01 9.944804642910000103e-01
-8.866169889398574089e-01 -7.524197207279261779e-01 9.945580346865744437e-01
-8.865495200828829025e-01 -7.509763871176939887e-01 9.944823518442286181e-01
-8.865413359326193010e-01 -7.495833905441652290e-01 9.944731713158795339e-01
-8.865282143911559221e-01 -7.481862526461029450e-01 9.944584522944163174e-01
-8.865060174378138758e-01 -7.467815107650799256e-01 9.944335529764839476e-01
-8.865024935185816801e-01 -7.453925390262807760e-01 9.944296000382595313e-01
-8.864987071065779656e-01 -7.440033580066144347e-01 9.944253526501225515e-01
-8.864979685360120376e-01 -7.426167419944993409e-01 9.944245241623992371e-01
-8.865041141788665424e-01 -7.412358844140348735e-01 9.944314180055755514e-01
-8.865069902111478717e-01 -7.398522788973345143e-01 9.944346441799543079e-01
-8.865025928439634884e-01 -7.384626055970251457e-01 9.944297114559942363e-01
-8.865317429084637046e-01 -7.371008388326814043e-01 9.944624103905082002e-01
-8.865630376350543962e-01 -7.357407607306982733e-01 9.944975150886613546e-01
-8.865568057502244415e-01 -7.343495008672239477e-01 9.944905245039937780e-01
-8.865283297120933881e-01 -7.329398700719295112e-01 9.944585816550832735e-01
-8.865328328588559792e-01 -7.315575423939219002e-01 9.944636330367394583e-01
-8.865933741700356974e-01 -7.302213551242677791e-01 9.945315449403183683e-01
-8.865776504657334467e-01 -7.288222839347761051e-01 9.945139069561110823e-01
-8.865437002053591087e-01 -7.274083070389367744e-01 9.944758234266319885e-01
-8.865372260058770326e-01 -7.260169374279605847e-01 9.944685610267530729e-01
-8.865113749158004541e-01 -7.246097499295414135e-01 9.944395626997845072e-01
-8.865089664197941532e-01 -7.232217679382129116e-01 9.944368609818112770e-01
-8.865138806407936167e-01 -7.218397559658816798e-01 9.944423734838726547e-01
