-1.022905639271604716e+00 -7.693618822314003403e-01 1.000365645638610301e+00
-1.022906049242339188e+00 -7.679679133269263769e-01 1.000366046575532408e+00
-1.022904932836746772e+00 -7.665727994267046430e-01 1.000364954770229353e+00
-1.022904932836746772e+00 -7.651785236911158306e-01 1.000364954770229353e+00
-1.022905639271604716e+00 -7.637847754374068598e-01 1.000365645638610301e+00
-1.022907963094704886e+00 -7.623922307272603671e-01 1.000367918255659960e+00
-1.022909988418587268e+00 -7.609994576119972765e-01 1.000369898951000147e+00
-1.022909529359721903e+00 -7.596048340917512798e-01 1.000369450007617012e+00
-1.022910691506658587e+00 -7.582114135082519413e-01 1.000370586546341700e+00
-1.022913250361721538e+00 -7.568190231338601803e-01 1.000373089016363348e+00
-1.022914140756518098e+00 -7.554253936204573527e-01 1.000373959791077461e+00
-1.022915446307619991e+00 -7.540320677081303602e-01 1.000375236574018833e+00
-1.022915710383169419e+00 -7.526379719428483162e-01 1.000375494830594292e+00
-1.022918039502166865e+00 -7.512453920546132702e-01 1.000377772626844797e+00
-1.022922147777528989e+00 -7.498541100293072414e-01 1.000381790375283408e+00
-1.022926623533136903e+00 -7.484630856852585445e-01 1.000386167506444490e+00
-1.030685834945713530e+00 -7.527355256553002194e-01 1.007974402663614821e+00
-1.028681202771851932e+00 -7.498693437610501888e-01 1.006013943084663964e+00
-1.028628948150694278e+00 -7.484291742526151259e-01 1.005962839907767581e+00
-1.028414430648684430e+00 -7.468713060940964654e-01 1.005753049355090800e+00
-1.027210015208572136e+00 -7.445964727663283433e-01 1.004575173524605791e+00
-1.026835530612092651e+00 -7.429253857579336540e-01 1.004208940794277138e+00
-1.026734055277732205e+00 -7.414524723369386727e-01 1.004109701495482954e+00
-1.026705505262037299e+00 -7.400323989161116112e-01 1.004081780586860484e+00
-1.026702199888182676e+00 -7.386305648375153243e-01 1.004078548047784292e+00
-1.026713880229452425e+00 -7.372395003733859253e-01 1.004089971009675342e+00
-1.026754008236201887e+00 -7.358687923483639981e-01 1.004129214785287605e+00
-1.026810268909808199e+00 -7.345095151313851822e-01 1.004184235740217757e+00
-1.026876988529036305e+00 -7.331575518965698368e-01 1.004249485175164214e+00
-1.026970056231481854e+00 -7.318241825573303938e-01 1.004340502106414457e+00
-1.026926216035731976e+00 -7.303931848407479999e-01 1.004297627940858417e+00
-1.027043240432151672e+00 -7.290765010445573457e-01 1.004412073674057382e+00
-1.027158427477553815e+00 -7.277581964343554644e-01 1.004524722542749826e+00
-1.027265898389341681e+00 -7.264341213248557416e-01 1.004629825304852675e+00
-1.027145001842201921e+00 -7.249485737905608795e-01 1.004511592744788739e+00
-1.027145001842201921e+00 -7.235485186074966935e-01 1.004511592744788739e+00
-1.027145001842201921e+00 -7.221484634244327294e-01 1.004511592744788739e+00
-1.027209628406612119e+00 -7.207937567494615561e-01 1.004574795245928076e+00
-1.027265898389341681e+00 -7.194330214662894019e-01 1.004629825304852675e+00
-1.027265898389341681e+00 -7.180328014945759341e-01 1.004629825304852675e+00
-1.027209628406612119e+00 -7.165933269315742926e-01 1.004574795245928076e+00
-1.027145001842201921e+00 -7.151481875091124651e-01 1.004511592744788739e+00
-1.027209628406612119e+00 -7.137930403863160800e-01 1.004574795245928076e+00
-1.027265898389341681e+00 -7.124319216077228401e-01 1.004629825304852675e+00
-1.027265898389341681e+00 -7.110317016360094833e-01 1.004629825304852675e+00
-1.027265898389341681e+00 -7.096314816642962375e-01 1.004629825304852675e+00
-1.027265898389341681e+00 -7.082312616925829918e-01 1.004629825304852675e+00
-1.027265898389341681e+00 -7.068310417208696350e-01 1.004629825304852675e+00
-1.027209628406612119e+00 -7.053921807505414421e-01 1.004574795245928076e+00
-1.027145001842201921e+00 -7.039477460446001977e-01 1.004511592744788739e+00
-1.027145001842201921e+00 -7.025476908615361227e-01 1.004511592744788739e+00
-1.027194869339212113e+00 -7.011816761280319499e-01 1.004560361398443291e+00
-1.027265898389341681e+00 -6.998299418623031842e-01 1.004629825304852675e+00
-1.027265898389341681e+00 -6.984297218905899385e-01 1.004629825304852675e+00
-1.027265898389341681e+00 -6.970295019188765817e-01 1.004629825304852675e+00
-1.027265898389341681e+00 -6.956292819471633360e-01 1.004629825304852675e+00
-1.027265898389341681e+00 -6.942290619754500902e-01 1.004629825304852675e+00
-1.027265898389341681e+00 -6.928288420037367334e-01 1.004629825304852675e+00
-1.027265898389341681e+00 -6.914286220320234877e-01 1.004629825304852675e+00
-1.027265898389341681e+00 -6.900284020603102419e-01 1.004629825304852675e+00
-1.027265898389341681e+00 -6.886281820885968852e-01 1.004629825304852675e+00
-1.027265898389341681e+00 -6.872279621168835284e-01 1.004629825304852675e+00
-1.027265898389341681e+00 -6.858277421451702827e-01 1.004629825304852675e+00
-1.027265898389341681e+00 -6.844275221734570369e-01 1.004629825304852675e+00
-1.027265898389341681e+00 -6.830273022017436801e-01 1.004629825304852675e+00
-1.027265898389341681e+00 -6.816270822300304344e-01 1.004629825304852675e+00
-1.027265898389341681e+00 -6.802268622583171886e-01 1.004629825304852675e+00
-1.027265898389341681e+00 -6.788266422866038319e-01 1.004629825304852675e+00
-1.027265898389341681e+00 -6.774264223148905861e-01 1.004629825304852675e+00
-1.027265898389341681e+00 -6.760262023431772294e-01 1.004629825304852675e+00
-1.027265898389341681e+00 -6.746259823714639836e-01 1.004629825304852675e+00
-1.027265898389341681e+00 -6.732257623997506268e-01 1.004629825304852675e+00
-1.027265898389341681e+00 -6.718255424280373811e-01 1.004629825304852675e+00
-1.027265898389341681e+00 -6.704253224563241353e-01 1.004629825304852675e+00
-1.027265898389341681e+00 -6.690251024846107786e-01 1.004629825304852675e+00
-1.027124513491872504e+00 -6.675329958108178197e-01 1.004491555860624219e+00
-1.027008850920014371e+00 -6.660579565658585333e-01 1.004378441943825750e+00
-1.027008850920014371e+00 -6.646580869639967526e-01 1.004378441943825750e+00
-1.027008850920014371e+00 -6.632582173621349719e-01 1.004378441943825750e+00
-1.027008850920014371e+00 -6.618583477602730802e-01 1.004378441943825750e+00
-1.027008850920014371e+00 -6.604584781584112996e-01 1.004378441943825750e+00
-1.027008850920014371e+00 -6.590586085565494079e-01 1.004378441943825750e+00
-1.027008850920014371e+00 -6.576587389546876272e-01 1.004378441943825750e+00
-1.027008850920014371e+00 -6.562588693528257355e-01 1.004378441943825750e+00
-1.027008850920014371e+00 -6.548589997509639549e-01 1.004378441943825750e+00
-1.027008850920014371e+00 -6.534591301491020632e-01 1.004378441943825750e+00
-1.027008850920014371e+00 -6.520592605472402825e-01 1.004378441943825750e+00
-1.027008850920014371e+00 -6.506593909453783908e-01 1.004378441943825750e+00
-1.026958088572001992e+00 -6.492274301519526114e-01 1.004328798157445135e+00
-1.026916355472420772e+00 -6.478013035897260963e-01 1.004287984657642019e+00
-1.026916355472420772e+00 -6.464015600642513126e-01 1.004287984657642019e+00
-1.026916355472420772e+00 -6.450018165387765290e-01 1.004287984657642019e+00
-1.026916355472420772e+00 -6.436020730133017453e-01 1.004287984657642019e+00
-1.026916355472420772e+00 -6.422023294878269617e-01 1.004287984657642019e+00
-1.026853573353008198e+00 -6.407634095053239554e-01 1.004226585958671647e+00
-1.026826537033937781e+00 -6.393469175657199299e-01 1.004200145391971999e+00
-1.026826537033937781e+00 -6.379472964677214142e-01 1.004200145391971999e+00
-1.026826537033937781e+00 -6.365476753697230095e-01 1.004200145391971999e+00
-1.026835609763577128e+00 -6.351536662484016382e-01 1.004209018201637882e+00
-1.026839342692776436e+00 -6.337563367152999616e-01 1.004212668874764791e+00
-1.026839342692776436e+00 -6.323566981624835215e-01 1.004212668874764791e+00
-1.026839342692776436e+00 -6.309570596096670814e-01 1.004212668874764791e+00
-1.026839342692776436e+00 -6.295574210568506412e-01 1.004212668874764791e+00
-1.026839342692776436e+00 -6.281577825040340901e-01 1.004212668874764791e+00
-1.026849439690240784e+00 -6.267643069166660696e-01 1.004222543382245814e+00
-1.026849439690240784e+00 -6.253646546010862561e-01 1.004222543382245814e+00
-1.026804567747839680e+00 -6.239377358523169326e-01 1.004178660204846141e+00
-1.021528405409471540e+00 -7.707694142288377126e-01 1.000382849712204258e+00
-1.021527323680855526e+00 -7.693742988363179158e-01 1.000381790375283408e+00
-1.021524646383625390e+00 -7.679779868548781696e-01 1.000379168497890436e+00
-1.021524355766771475e+00 -7.665834732207875701e-01 1.000378883896781979e+00
-1.021522384420586960e+00 -7.651877014028108936e-01 1.000376953357304588e+00
-1.021519454955505335e+00 -7.637912185797270936e-01 1.000374084531914232e+00
-1.021518562866714053e+00 -7.623962643212343071e-01 1.000373210909289101e+00
-1.021518562866714053e+00 -7.610019770785108051e-01 1.000373210909289101e+00
-1.021516589372192252e+00 -7.596062223327293417e-01 1.000371278265944852e+00
-1.021515758195467027e+00 -7.582113208498563184e-01 1.000370464294510819e+00
-1.021514490199969538e+00 -7.568160980071857447e-01 1.000369222546418024e+00
-1.021513264878470606e+00 -7.554209101838474938e-01 1.000368022588975503e+00
-1.021512505721336339e+00 -7.540260698031118203e-01 1.000367279146332722e+00
-1.021512505721336339e+00 -7.526317908278842284e-01 1.000367279146332722e+00
-1.021511977834629770e+00 -7.512371236358762472e-01 1.000366762186838399e+00
-1.021510532476024302e+00 -7.498417844128866250e-01 1.000365346747039696e+00
-1.021510937694287913e+00 -7.484478050291355489e-01 1.000365743577317890e+00
-1.021512724956846530e+00 -7.470548352587481622e-01 1.000367493843685507e+00
-1.021513158339813376e+00 -7.456608723352942114e-01 1.000367918255659960e+00
-1.021513931840916545e+00 -7.442671560362227323e-01 1.000368675745352487e+00
-1.021514722469121228e+00 -7.428734500809196506e-01 1.000369450007617012e+00
-1.021514609910471050e+00 -7.414790863779207042e-01 1.000369339778921729e+00
-1.021517200246702339e+00 -7.400866812228344971e-01 1.000371876495401935e+00
-1.021518062573043784e+00 -7.386930194162681929e-01 1.000372720971657525e+00
-1.021521025320806908e+00 -7.373008712720140467e-01 1.000375622390780483e+00
-1.021521025320806908e+00 -7.359065806682469901e-01 1.000375622390780483e+00
-1.021522937430917599e+00 -7.345136649440385801e-01 1.000377494920366095e+00
-1.021525373529828640e+00 -7.331211200526736027e-01 1.000379880592225934e+00
-1.021530802469632571e+00 -7.317307123071181696e-01 1.000385197153413230e+00
-1.021535585782439082e+00 -7.303398281548938442e-01 1.000389881452030005e+00
-1.027293027236532819e+00 -7.330539023480636684e-01 1.006028144331845509e+00
-1.027275024765821110e+00 -7.316389118466711805e-01 1.006010514510827347e+00
-1.027189391375145089e+00 -7.301758951604059300e-01 1.005926653724439568e+00
-1.026943664873835260e+00 -7.285995288273474646e-01 1.005686013741911022e+00
-1.025911911357618722e+00 -7.264672329933373751e-01 1.004675617440361934e+00
-1.025386981236044770e+00 -7.246959529384543464e-01 1.004161553330015888e+00
-1.025326466372729728e+00 -7.232536991282761951e-01 1.004102291119496337e+00
-1.025306941835807839e+00 -7.218404686780574009e-01 1.004083170738915731e+00
-1.025302107372906724e+00 -7.204376136372706574e-01 1.004078436349007397e+00
-1.025313885847040529e+00 -7.190464223459485105e-01 1.004089971009675342e+00
-1.025344684473735724e+00 -7.176685116583219060e-01 1.004120132107279240e+00
-1.025383041799911021e+00 -7.162957971318183459e-01 1.004157695439892528e+00
-1.025495336774563615e+00 -7.149745271655216783e-01 1.004267665917616625e+00
-1.025617629000121989e+00 -7.136599070826751268e-01 1.004387426703957864e+00
-1.025642796944645774e+00 -7.122775033246366849e-01 1.004412073674057382e+00
-1.025681177982232128e+00 -7.109041889159298799e-01 1.004449660227257679e+00
-1.025723959183008294e+00 -7.095338135002567936e-01 1.004491555860624219e+00
-1.025757826924657667e+00 -7.081571676731376330e-01 1.004524722542749826e+00
-1.025711608195438496e+00 -7.067252490373682194e-01 1.004479460537502034e+00
-1.025642796944645774e+00 -7.052779209413363448e-01 1.004412073674057382e+00
-1.025670037150330005e+00 -7.038966988694685956e-01 1.004438750009678527e+00
-1.025681177982232128e+00 -7.025043757345680318e-01 1.004449660227257679e+00
-1.025681177982232128e+00 -7.011044068710077237e-01 1.004449660227257679e+00
-1.025681177982232128e+00 -6.997044380074473047e-01 1.004449660227257679e+00
-1.025711608195438496e+00 -6.983251866478591419e-01 1.004479460537502034e+00
-1.025711608195438496e+00 -6.969251762496075919e-01 1.004479460537502034e+00
-1.025699479791992275e+00 -6.955169416977527996e-01 1.004467583191030133e+00
-1.025865151292529198e+00 -6.942290619754500902e-01 1.004629825304852675e+00
-1.025865151292529198e+00 -6.928288420037367334e-01 1.004629825304852675e+00
-1.025865151292529198e+00 -6.914286220320234877e-01 1.004629825304852675e+00
-1.025865151292529198e+00 -6.900284020603102419e-01 1.004629825304852675e+00
-1.025865151292529198e+00 -6.886281820885968852e-01 1.004629825304852675e+00
-1.025865151292529198e+00 -6.872279621168835284e-01 1.004629825304852675e+00
-1.025865151292529198e+00 -6.858277421451702827e-01 1.004629825304852675e+00
-1.025865151292529198e+00 -6.844275221734570369e-01 1.004629825304852675e+00
-1.025865151292529198e+00 -6.830273022017436801e-01 1.004629825304852675e+00
-1.025865151292529198e+00 -6.816270822300304344e-01 1.004629825304852675e+00
-1.025865151292529198e+00 -6.802268622583171886e-01 1.004629825304852675e+00
-1.025865151292529198e+00 -6.788266422866038319e-01 1.004629825304852675e+00
-1.025865151292529198e+00 -6.774264223148905861e-01 1.004629825304852675e+00
-1.025865151292529198e+00 -6.760262023431772294e-01 1.004629825304852675e+00
-1.025865151292529198e+00 -6.746259823714639836e-01 1.004629825304852675e+00
-1.025865151292529198e+00 -6.732257623997506268e-01 1.004629825304852675e+00
-1.025865151292529198e+00 -6.718255424280373811e-01 1.004629825304852675e+00
-1.025865151292529198e+00 -6.704253224563241353e-01 1.004629825304852675e+00
-1.025865151292529198e+00 -6.690251024846107786e-01 1.004629825304852675e+00
-1.025808958037757845e+00 -6.675883123895557381e-01 1.004574795245928076e+00
-1.025608454324953067e+00 -6.660579565658585333e-01 1.004378441943825750e+00
-1.025608454324953067e+00 -6.646580869639967526e-01 1.004378441943825750e+00
-1.025608454324953067e+00 -6.632582173621349719e-01 1.004378441943825750e+00
-1.025608454324953067e+00 -6.618583477602730802e-01 1.004378441943825750e+00
-1.025608454324953067e+00 -6.604584781584112996e-01 1.004378441943825750e+00
-1.025608454324953067e+00 -6.590586085565494079e-01 1.004378441943825750e+00
-1.025608454324953067e+00 -6.576587389546876272e-01 1.004378441943825750e+00
-1.025608454324953067e+00 -6.562588693528257355e-01 1.004378441943825750e+00
-1.025608454324953067e+00 -6.548589997509639549e-01 1.004378441943825750e+00
-1.025608454324953067e+00 -6.534591301491020632e-01 1.004378441943825750e+00
-1.025608454324953067e+00 -6.520592605472402825e-01 1.004378441943825750e+00
-1.025608454324953067e+00 -6.506593909453783908e-01 1.004378441943825750e+00
-1.025557761194863637e+00 -6.492274301519526114e-01 1.004328798157445135e+00
-1.025516085001209277e+00 -6.478013035897260963e-01 1.004287984657642019e+00
-1.025516085001209277e+00 -6.464015600642513126e-01 1.004287984657642019e+00
-1.025516085001209277e+00 -6.450018165387765290e-01 1.004287984657642019e+00
-1.025516085001209277e+00 -6.436020730133017453e-01 1.004287984657642019e+00
-1.025516085001209277e+00 -6.422023294878269617e-01 1.004287984657642019e+00
-1.025453388489497186e+00 -6.407634095053239554e-01 1.004226585958671647e+00
-1.025426389036291352e+00 -6.393469175657199299e-01 1.004200145391971999e+00
-1.025426389036291352e+00 -6.379472964677214142e-01 1.004200145391971999e+00
-1.025426389036291352e+00 -6.365476753697230095e-01 1.004200145391971999e+00
-1.025426389036291352e+00 -6.351480542717243827e-01 1.004200145391971999e+00
-1.025426389036291352e+00 -6.337484331737258669e-01 1.004200145391971999e+00
-1.025426389036291352e+00 -6.323488120757273512e-01 1.004200145391971999e+00
-1.025439177233741006e+00 -6.309570596096670814e-01 1.004212668874764791e+00
-1.025453388489497186e+00 -6.295661459054056053e-01 1.004226585958671647e+00
-1.025453388489497186e+00 -6.281664879554158532e-01 1.004226585958671647e+00
-1.025453388489497186e+00 -6.267668300054261010e-01 1.004226585958671647e+00
-1.025453388489497186e+00 -6.253671720554363489e-01 1.004226585958671647e+00
-1.025439177233741006e+00 -6.239588668455846587e-01 1.004212668874764791e+00
-1.020141644960909977e+00 -7.707755078933344883e-01 1.000390758689055248e+00
-1.020139166364019800e+00 -7.693793268587223455e-01 1.000388328080094480e+00
-1.020139166364019800e+00 -7.679850185461838397e-01 1.000388328080094480e+00
-1.020138479379428587e+00 -7.665901939942701970e-01 1.000387654396160508e+00
-1.020137294490402802e+00 -7.651949978470317104e-01 1.000386492447682851e+00
-1.020137966681718078e+00 -7.638011953783230279e-01 1.000387151624752224e+00
-1.020137458112048812e+00 -7.624065086225673138e-01 1.000386652901462448e+00
-1.020137458112048812e+00 -7.610122026448377097e-01 1.000386652901462448e+00
-1.020137458112048812e+00 -7.596178966671079946e-01 1.000386652901462448e+00
-1.020137458112048812e+00 -7.582235906893785016e-01 1.000386652901462448e+00
-1.020138646839507723e+00 -7.568301666160875962e-01 1.000387818614057789e+00
-1.020137294490402580e+00 -7.554348575683703659e-01 1.000386492447682629e+00
-1.020136630169055758e+00 -7.540400607771992059e-01 1.000385840988211816e+00
-1.020133889007933892e+00 -7.526437335321032318e-01 1.000383152898505879e+00
-1.020132192536847171e+00 -7.512481831132771237e-01 1.000381489272669233e+00
-1.020131590451069270e+00 -7.498534417659187268e-01 1.000380898843829414e+00
-1.020130112353761609e+00 -7.484580593445341323e-01 1.000379449363853368e+00
-1.020127567068127572e+00 -7.470618994380940903e-01 1.000376953357304588e+00
-1.020125411390248482e+00 -7.456660312751935971e-01 1.000374839415343997e+00
-1.020123750732319312e+00 -7.442705301658282258e-01 1.000373210909289101e+00
-1.020120260111799348e+00 -7.428737009775266964e-01 1.000369787870412752e+00
-1.020119463209120170e+00 -7.414788392730977673e-01 1.000369006396506721e+00
-1.020119234955201737e+00 -7.400843922949780218e-01 1.000368782561795289e+00
-1.020118898839964761e+00 -7.386898678361224491e-01 1.000368452954060405e+00
-1.020117597948172250e+00 -7.372946469994033913e-01 1.000367177248736805e+00
-1.020117597948172250e+00 -7.359003681661971941e-01 1.000367177248736805e+00
-1.020116858835026008e+00 -7.345055571560069607e-01 1.000366452445504928e+00
-1.020116135971532723e+00 -7.331107598441122253e-01 1.000365743577317890e+00
-1.020116545625033844e+00 -7.317167768484178492e-01 1.000366145299548259e+00
-1.020116444951892909e+00 -7.303224273795280164e-01 1.000366046575532408e+00
-1.020117174691635542e+00 -7.289286715605718392e-01 1.000366762186838399e+00
-1.020117920793708999e+00 -7.275349254162275514e-01 1.000367493843685285e+00
-1.020120373385470236e+00 -7.261423919463690924e-01 1.000369898951000369e+00
-1.020121190501753983e+00 -7.247486898428833202e-01 1.000370700247156686e+00
-1.020120373385470236e+00 -7.233538266931188732e-01 1.000369898951000369e+00
-1.020122509546731449e+00 -7.219610558704440129e-01 1.000371993754202826e+00
-1.020122509546731449e+00 -7.205667703241511735e-01 1.000371993754202826e+00
-1.020123626432840602e+00 -7.191732721673637085e-01 1.000373089016363348e+00
-1.020123127759485104e+00 -7.177786342181802226e-01 1.000372599997785494e+00
-1.020125158219603367e+00 -7.163857737232780520e-01 1.000374591146316883e+00
-1.020128122447095942e+00 -7.149935621425007604e-01 1.000377497983622188e+00
-1.020131740866934811e+00 -7.136018000789606797e-01 1.000381046347504466e+00
-1.020137129492095340e+00 -7.122112639974657045e-01 1.000386330643895372e+00
-1.025860067735910874e+00 -7.148046199688666835e-01 1.005998467507380312e+00
-1.025883357359652859e+00 -7.134186884735250755e-01 1.006021306222454559e+00
-1.025840126237262062e+00 -7.119865244489563816e-01 1.005978912094598776e+00
-1.025634228765750944e+00 -7.104418020029245051e-01 1.005777000988670844e+00
-1.024785083166824151e+00 -7.084529530186801649e-01 1.004944295634327300e+00
-1.024049697056381714e+00 -7.065449137908950128e-01 1.004223147279499573e+00
-1.023934660047244316e+00 -7.050660478746876292e-01 1.004110337493312688e+00
-1.023908662006563386e+00 -7.036486856208051810e-01 1.004084842798757649e+00
-1.023902117648282983e+00 -7.022447367702463472e-01 1.004078425145309650e+00
-1.023909165756873296e+00 -7.008501096440798994e-01 1.004085336795995431e+00
-1.023937861631100787e+00 -6.994702512270073447e-01 1.004113477091543194e+00
-1.023991106307464483e+00 -6.981070505404584070e-01 1.004165690901700270e+00
-1.024049081236281022e+00 -6.967469226956597428e-01 1.004222543382245814e+00
-1.024142850972396657e+00 -6.954109416740119620e-01 1.004314497649497095e+00
-1.024311070750983266e+00 -6.941251554531044921e-01 1.004479460537502034e+00
-1.024357226371761298e+00 -6.927563593607523051e-01 1.004524722542749826e+00
-1.024408287668903794e+00 -6.913907480242504899e-01 1.004574795245928076e+00
-1.024408287668903794e+00 -6.899906047516214391e-01 1.004574795245928076e+00
-1.024408287668903794e+00 -6.885904614789922773e-01 1.004574795245928076e+00
-1.024464404195716938e+00 -6.872279621168835284e-01 1.004629825304852675e+00
-1.024508188170285994e+00 -6.858570533289439775e-01 1.004672761581157037e+00
-1.024464404195716938e+00 -6.844275221734570369e-01 1.004629825304852675e+00
-1.024572943734316288e+00 -6.830996673009391840e-01 1.004736263417543851e+00
-1.024694808134252844e+00 -6.817803814210178226e-01 1.004855768409925965e+00
-1.024464404195650769e+00 -6.802268622582732238e-01 1.004629825304787838e+00
-1.024408287668903794e+00 -6.787894585705885886e-01 1.004574795245928076e+00
-1.024408287668903794e+00 -6.773893152979594268e-01 1.004574795245928076e+00
-1.024408287668903794e+00 -6.759891720253303760e-01 1.004574795245928076e+00
-1.024408287668903794e+00 -6.745890287527012141e-01 1.004574795245928076e+00
-1.024408287668903794e+00 -6.731888854800721633e-01 1.004574795245928076e+00
-1.024464404195716938e+00 -6.718255424280373811e-01 1.004629825304852675e+00
-1.024525560151371195e+00 -6.704653438578699332e-01 1.004689797224612713e+00
-1.024408287668903794e+00 -6.689884556621847889e-01 1.004574795245928076e+00
-1.024323404874143861e+00 -6.675329958108178197e-01 1.004491555860624219e+00
-1.024269556468229148e+00 -6.660979501234947087e-01 1.004438750009678527e+00
-1.024269556468229148e+00 -6.646979964662363960e-01 1.004438750009678527e+00
-1.024311070750983266e+00 -6.633249266915710596e-01 1.004479460537502034e+00
-1.024208057729891985e+00 -6.618583477602730802e-01 1.004378441943825750e+00
-1.024208057729891985e+00 -6.604584781584112996e-01 1.004378441943825750e+00
-1.024208057729891985e+00 -6.590586085565494079e-01 1.004378441943825750e+00
-1.024208057729891985e+00 -6.576587389546876272e-01 1.004378441943825750e+00
-1.024208057729891985e+00 -6.562588693528257355e-01 1.004378441943825750e+00
-1.024208057729891985e+00 -6.548589997509639549e-01 1.004378441943825750e+00
-1.024208057729891985e+00 -6.534591301491020632e-01 1.004378441943825750e+00
-1.024208057729891985e+00 -6.520592605472402825e-01 1.004378441943825750e+00
-1.024208057729891985e+00 -6.506593909453783908e-01 1.004378441943825750e+00
-1.024157433817725060e+00 -6.492274301519526114e-01 1.004328798157445135e+00
-1.024115814529997781e+00 -6.478013035897260963e-01 1.004287984657642019e+00
-1.024115814529997781e+00 -6.464015600642513126e-01 1.004287984657642019e+00
-1.024115814529997781e+00 -6.450018165387765290e-01 1.004287984657642019e+00
-1.024115814529997781e+00 -6.436020730133017453e-01 1.004287984657642019e+00
-1.024100636689806665e+00 -6.421928117709936323e-01 1.004273100674482500e+00
-1.024081537677341336e+00 -6.407811384898015605e-01 1.004254371436572590e+00
-1.024049081236281022e+00 -6.393611777568849464e-01 1.004222543382245814e+00
-1.024026241038644924e+00 -6.379472964677214142e-01 1.004200145391971999e+00
-1.024049081236281022e+00 -6.365618731257252083e-01 1.004222543382245814e+00
-1.024026241038644924e+00 -6.351480542717243827e-01 1.004200145391971999e+00
-1.024026241038644924e+00 -6.337484331737258669e-01 1.004200145391971999e+00
-1.024026241038644924e+00 -6.323488120757273512e-01 1.004200145391971999e+00
-1.024039011774705799e+00 -6.309570596096670814e-01 1.004212668874764791e+00
-1.024064429458760861e+00 -6.295730473088184675e-01 1.004237594448935456e+00
-1.024081537677341336e+00 -6.281838684015355057e-01 1.004254371436572590e+00
-1.024081537677341336e+00 -6.267841717250615119e-01 1.004254371436572590e+00
-1.024081537677341336e+00 -6.253844750485875181e-01 1.004254371436572590e+00
-1.024049081236281022e+00 -6.239650022855063316e-01 1.004222543382245814e+00
-1.018744333151878179e+00 -7.707736351712607403e-01 1.000388328080094480e+00
-1.018744333151878179e+00 -7.693793268587223455e-01 1.000388328080094480e+00
-1.018744333151878179e+00 -7.679850185461838397e-01 1.000388328080094480e+00
-1.018744333151878179e+00 -7.665907102336453338e-01 1.000388328080094480e+00
-1.018743135109898335e+00 -7.651955020511568284e-01 1.000387151624752224e+00
-1.018743135109898335e+00 -7.638011953783230279e-01 1.000387151624752224e+00
-1.018742627235595055e+00 -7.624065086225673138e-01 1.000386652901462448e+00
-1.018742627235595055e+00 -7.610122026448377097e-01 1.000386652901462448e+00
-1.018742627235595055e+00 -7.596178966671079946e-01 1.000386652901462448e+00
-1.018742627235595055e+00 -7.582235906893785016e-01 1.000386652901462448e+00
-1.018742627235595055e+00 -7.568292847116487865e-01 1.000386652901462448e+00
-1.018742627235595055e+00 -7.554349787339190714e-01 1.000386652901462448e+00
-1.018742627235595055e+00 -7.540406727561894673e-01 1.000386652901462448e+00
-1.018740815104143271e+00 -7.526450279769639762e-01 1.000384873421474863e+00
-1.018743135109898335e+00 -7.512524353228194895e-01 1.000387151624752224e+00
-1.018744333151878179e+00 -7.498590104831839298e-01 1.000388328080094480e+00
-1.018741962623518127e+00 -7.484629605591878176e-01 1.000386000264541941e+00
-1.018740496799422468e+00 -7.470675805660503821e-01 1.000384560852052740e+00
-1.018741800424645794e+00 -7.456742317005290444e-01 1.000385840988211816e+00
-1.018742463837668533e+00 -7.442804115356151939e-01 1.000386492447683073e+00
-1.018741144776199814e+00 -7.428851438971656451e-01 1.000385197153413008e+00
-1.018741305780288098e+00 -7.414909571352508166e-01 1.000385355256486974e+00
-1.018741800424646238e+00 -7.400970123160827141e-01 1.000385840988212260e+00
-1.018740015030261681e+00 -7.387014128576704364e-01 1.000384087763536156e+00
-1.018739380942617956e+00 -7.373066515379327335e-01 1.000383465101051472e+00
-1.018739380942617956e+00 -7.359123500032542786e-01 1.000383465101051472e+00
-1.018738441367998737e+00 -7.345173710288611657e-01 1.000382542455936496e+00
-1.018736767597450799e+00 -7.331218662709559908e-01 1.000380898843829414e+00
-1.018734715678382585e+00 -7.317260944821196711e-01 1.000378883896782201e+00
-1.018733722179786971e+00 -7.303310870925698861e-01 1.000377908299307173e+00
-1.018730737222652838e+00 -7.289346574697991299e-01 1.000374977125920939e+00
-1.018729318373222670e+00 -7.275393544748238739e-01 1.000373583841695391e+00
-1.018728439670485875e+00 -7.261444403774864886e-01 1.000372720971657081e+00
-1.018727579699037600e+00 -7.247495420113589937e-01 1.000371876495401935e+00
-1.018725914543723965e+00 -7.233540742723180150e-01 1.000370241343297550e+00
-1.018724877053063471e+00 -7.219590559103186145e-01 1.000369222546418468e+00
-1.018724428995215314e+00 -7.205644573060374647e-01 1.000368782561795289e+00
-1.018722689626742284e+00 -7.191689483253814741e-01 1.000367074533723866e+00
-1.018722689626742062e+00 -7.177746696353359823e-01 1.000367074533723644e+00
-1.018721642806669658e+00 -7.163796548064176317e-01 1.000366046575532408e+00
-1.018721953978726003e+00 -7.149855959438681241e-01 1.000366352140808379e+00
-1.018721953978726003e+00 -7.135913182606702376e-01 1.000366352140808379e+00
-1.018722689626742284e+00 -7.121975548751549034e-01 1.000367074533723866e+00
-1.018722267774900159e+00 -7.108029818423264867e-01 1.000366660282919762e+00
-1.018723010368759008e+00 -7.094092208505217156e-01 1.000367389496525927e+00
-1.018723441728949020e+00 -7.080152415178608827e-01 1.000367813084353852e+00
-1.018723878330458632e+00 -7.066212646399906427e-01 1.000368241819061810e+00
-1.018725452750119942e+00 -7.052280742388008505e-01 1.000369787870412974e+00
-1.018727215762447180e+00 -7.038350098259421594e-01 1.000371519116317387e+00
-1.018727215762447180e+00 -7.024407249411839249e-01 1.000371519116317387e+00
-1.018727215762447180e+00 -7.010464400564258014e-01 1.000371519116317387e+00
-1.018728439670486319e+00 -6.996529957400592359e-01 1.000372720971657525e+00
-1.018729828250545921e+00 -6.982596609432772938e-01 1.000374084531914232e+00
-1.018733165194806611e+00 -6.968676551302402933e-01 1.000377361350229810e+00
-1.018736173335798911e+00 -6.954754157140589088e-01 1.000380315289741473e+00
-1.018742299064962609e+00 -6.940852921259562658e-01 1.000386330643895372e+00
-1.018746991115037304e+00 -6.926941769437481300e-01 1.000390938151369813e+00
-1.024478818766329180e+00 -6.951893603401733124e-01 1.006019488214739077e+00
-1.024432048667913930e+00 -6.937555303281494057e-01 1.005973560832337688e+00
-1.024223696707650788e+00 -6.922126246525960314e-01 1.005768963012848571e+00
-1.023477670857585897e+00 -6.903076429954677629e-01 1.005036379254034662e+00
-1.022757129132496612e+00 -6.884218569056016479e-01 1.004328820440486103e+00
-1.022548484219641285e+00 -6.868819023135690482e-01 1.004123934946902219e+00
-1.022511649249753019e+00 -6.854576945003313382e-01 1.004087763679252232e+00
-1.022502184777726919e+00 -6.840518983235763795e-01 1.004078469740588453e+00
-1.022509177835907446e+00 -6.826571155838302429e-01 1.004085336795995431e+00
-1.022521941362561249e+00 -6.812661583381498520e-01 1.004097870346047250e+00
-1.022587287092148856e+00 -6.799101276419313722e-01 1.004162038658981126e+00
-1.022686386874873232e+00 -6.785763146773328147e-01 1.004259352835587427e+00
-1.022764614720252041e+00 -6.772284099944593239e-01 1.004336171150939983e+00
-1.022910533306528480e+00 -6.759250202758347870e-01 1.004479460537502034e+00
-1.022910533306528480e+00 -6.745250098775832370e-01 1.004479460537502034e+00
-1.023047615484496076e+00 -6.732152062354150868e-01 1.004614072732499253e+00
-1.023007617300049521e+00 -6.717887422074430015e-01 1.004574795245928076e+00
-1.023022532093056380e+00 -6.703983727693564321e-01 1.004589441300246300e+00
-1.022880186193976915e+00 -6.689051230091203060e-01 1.004449660227257679e+00
-1.022869075786127846e+00 -6.674979037807530213e-01 1.004438750009678527e+00
-1.022869075786127846e+00 -6.660979501234947087e-01 1.004438750009678527e+00
-1.022922850565279429e+00 -6.647329412981886065e-01 1.004491555860624219e+00
-1.022922850565279429e+00 -6.633329140418738890e-01 1.004491555860624219e+00
-1.022869075786127846e+00 -6.618980891517197707e-01 1.004438750009678527e+00
-1.022869075786127846e+00 -6.604981354944615690e-01 1.004438750009678527e+00
-1.022807661134830681e+00 -6.590586085565494079e-01 1.004378441943825750e+00
-1.022807661134830681e+00 -6.576587389546876272e-01 1.004378441943825750e+00
-1.022807661134830681e+00 -6.562588693528257355e-01 1.004378441943825750e+00
-1.022807661134830681e+00 -6.548589997509639549e-01 1.004378441943825750e+00
-1.022807661134830681e+00 -6.534591301491020632e-01 1.004378441943825750e+00
-1.022807661134830681e+00 -6.520592605472402825e-01 1.004378441943825750e+00
-1.022807661134830681e+00 -6.506593909453783908e-01 1.004378441943825750e+00
-1.022807661134830681e+00 -6.492595213435166102e-01 1.004378441943825750e+00
-1.022757106440586705e+00 -6.478276297419657270e-01 1.004328798157445135e+00
-1.022715544058786064e+00 -6.464015600642513126e-01 1.004287984657642019e+00
-1.022715544058786064e+00 -6.450018165387765290e-01 1.004287984657642019e+00
-1.022715544058786064e+00 -6.436020730133017453e-01 1.004287984657642019e+00
-1.022700386971210351e+00 -6.421928117709936323e-01 1.004273100674482500e+00
-1.022700386971210351e+00 -6.407930889903244998e-01 1.004273100674482500e+00
-1.022648902009301031e+00 -6.393611777568849464e-01 1.004222543382245814e+00
-1.022626093040998496e+00 -6.379472964677214142e-01 1.004200145391971999e+00
-1.022626093040998496e+00 -6.365476753697230095e-01 1.004200145391971999e+00
-1.022626093040998496e+00 -6.351480542717243827e-01 1.004200145391971999e+00
-1.022626093040998496e+00 -6.337484331737258669e-01 1.004200145391971999e+00
-1.022626093040998496e+00 -6.323488120757273512e-01 1.004200145391971999e+00
-1.022626093040998496e+00 -6.309491909777289465e-01 1.004200145391971999e+00
-1.022638846315670369e+00 -6.295574210568506412e-01 1.004212668874764791e+00
-1.022638846315670369e+00 -6.281577825040340901e-01 1.004212668874764791e+00
-1.022653018762475385e+00 -6.267668300054261010e-01 1.004226585958671647e+00
-1.022681314072767300e+00 -6.253844750485875181e-01 1.004254371436572590e+00
-1.022664229246202483e+00 -6.239743541357744006e-01 1.004237594448935456e+00
-1.017349499939736557e+00 -7.707736351712607403e-01 1.000388328080094480e+00
-1.017351431022171404e+00 -7.693807872564558670e-01 1.000390226967672991e+00
-1.017350193183478080e+00 -7.679855418676261314e-01 1.000389009766130100e+00
-1.017348981835913158e+00 -7.665903198333179347e-01 1.000387818614057789e+00
-1.017348303538078813e+00 -7.651955020511568284e-01 1.000387151624752224e+00
-1.017348303538078813e+00 -7.638011953783230279e-01 1.000387151624752224e+00
-1.017347633184933819e+00 -7.624063863388428341e-01 1.000386492447682851e+00
-1.017347633184933819e+00 -7.610120805847483405e-01 1.000386492447682851e+00
-1.017347633184933819e+00 -7.596177748306538469e-01 1.000386492447682851e+00
-1.017347633184933819e+00 -7.582234690765594642e-01 1.000386492447682851e+00
-1.017347633184933819e+00 -7.568291633224650816e-01 1.000386492447682851e+00
-1.017347132657030695e+00 -7.554344858997168455e-01 1.000386000264541941e+00
-1.017348303538078813e+00 -7.540410486684868685e-01 1.000387151624752224e+00
-1.017349330275809427e+00 -7.526475015888083320e-01 1.000388161244791130e+00
-1.023094062688689965e+00 -7.554953436165309233e-01 1.006037117924997393e+00
-1.023099166094196821e+00 -7.540969237798902380e-01 1.006042136246923846e+00
-1.023091353588224894e+00 -7.526889877098605908e-01 1.006034453990444888e+00
-1.023044548737369608e+00 -7.512524398005692161e-01 1.005988429466428524e+00
-1.022601024536402781e+00 -7.495252409288662987e-01 1.005552299666497840e+00
-1.021362610972941676e+00 -7.472177254122981394e-01 1.004334532837796390e+00
-1.021396866642845236e+00 -7.458429311348471202e-01 1.004368217399831398e+00
-1.021362610972941676e+00 -7.444181086067069852e-01 1.004334532837796390e+00
-1.021489058109849468e+00 -7.431102876486458397e-01 1.004458871857857094e+00
-1.021526400120364775e+00 -7.417374202396352922e-01 1.004495591305272884e+00
-1.021475621526094724e+00 -7.403005862621671040e-01 1.004445659287783288e+00
-1.022201888740154940e+00 -7.394259799052983473e-01 1.005159818231249558e+00
-1.022770201501715936e+00 -7.384353404241006391e-01 1.005718656126582733e+00
-1.023007957978559812e+00 -7.372049360966135279e-01 1.005952448745907946e+00
-1.023021969144930710e+00 -7.358129502875575545e-01 1.005966226319201295e+00
-1.023062438926145123e+00 -7.344399202832099238e-01 1.006006021391365968e+00
-1.023087508991578520e+00 -7.330557452484997016e-01 1.006030673490615257e+00
-1.023101995477390558e+00 -7.316639327254187419e-01 1.006044918458860682e+00
-1.017347302734450842e+00 -7.261542008660258896e-01 1.000386167506444490e+00
-1.017346807353675331e+00 -7.247595426547428499e-01 1.000385680384618947e+00
-1.017347633184933597e+00 -7.233658252241981224e-01 1.000386492447682629e+00
-1.017346807353675331e+00 -7.219709334102074605e-01 1.000385680384618947e+00
-1.017345668839895856e+00 -7.205758223899492165e-01 1.000384560852052740e+00
-1.017343463823876526e+00 -7.191799605591672195e-01 1.000382392597889414e+00
-1.017341796913729723e+00 -7.177844844325260709e-01 1.000380753478338880e+00
-1.017341204561375001e+00 -7.163897695554453104e-01 1.000380171001636675e+00
-1.017341204561375445e+00 -7.149954726119744919e-01 1.000380171001637120e+00
-1.017339187132054068e+00 -7.135997605681132505e-01 1.000378187206740765e+00
-1.017337661595687059e+00 -7.122043984121116944e-01 1.000376687103997631e+00
-1.017336449107779650e+00 -7.108092591635124524e-01 1.000375494830594292e+00
-1.017335140728721665e+00 -7.094140563710413794e-01 1.000374208264730447e+00
-1.017333628219207586e+00 -7.080187150992468537e-01 1.000372720971657525e+00
-1.017332405986905330e+00 -7.066235795954585175e-01 1.000371519116317387e+00
-1.017330758352352760e+00 -7.052281525469920043e-01 1.000369898951000147e+00
-1.017330758352352760e+00 -7.038338699203668947e-01 1.000369898951000147e+00
-1.017330413000006706e+00 -7.024393488372147054e-01 1.000369559356341531e+00
-1.017329287839130902e+00 -7.010442913325828362e-01 1.000368452954060405e+00
-1.017327568405647309e+00 -6.996488282117347968e-01 1.000366762186838399e+00
-1.017327568405647309e+00 -6.982545499570281811e-01 1.000366762186838399e+00
-1.017326840661446630e+00 -6.968597732040628934e-01 1.000366046575532408e+00
-1.017326840661446630e+00 -6.954654959467518882e-01 1.000366046575532408e+00
-1.017326128967650067e+00 -6.940707331363610288e-01 1.000365346747039696e+00
-1.017326840661446630e+00 -6.926769414321298779e-01 1.000366046575532630e+00
-1.017327568405647309e+00 -6.912831586834955466e-01 1.000366762186838399e+00
-1.017327568405647309e+00 -6.898888804287890419e-01 1.000366762186838399e+00
-1.017328744075139291e+00 -6.884953978294097166e-01 1.000367918255659960e+00
-1.017329961017137352e+00 -6.871019398827893365e-01 1.000369114908895574e+00
-1.017331687929207362e+00 -6.857088223339529165e-01 1.000370813030021511e+00
-1.017332045493071213e+00 -6.843147789508895462e-01 1.000371164632608556e+00
-1.017332888672080493e+00 -6.829210605742438434e-01 1.000371993754202826e+00
-1.017333871304903159e+00 -6.815274333086240865e-01 1.000372960004647371e+00
-1.017336051391874996e+00 -6.801346039011478828e-01 1.000375103745378524e+00
-1.017337388027973244e+00 -6.787412057893026374e-01 1.000376418097183473e+00
-1.017340328458635756e+00 -6.773488718258808827e-01 1.000379309505214254e+00
-1.017343928688376309e+00 -6.759569681948995878e-01 1.000382849712204258e+00
-1.017350901780955663e+00 -6.745672911145313977e-01 1.000389706549925650e+00
-1.023084936951963897e+00 -6.769671462388008321e-01 1.006028144331845287e+00
-1.023059539352352276e+00 -6.755482067550683256e-01 1.006003170159042170e+00
-1.022915806737672018e+00 -6.740513599150969037e-01 1.005861833843352260e+00
-1.022524911243744228e+00 -6.723923775808819947e-01 1.005477455328743774e+00
-1.021481386949972814e+00 -6.703062052312992458e-01 1.004451328590962200e+00
-1.021195909282546666e+00 -6.687192920248246075e-01 1.004170610385038076e+00
-1.021122791984977241e+00 -6.672719322157014687e-01 1.004098712093375756e+00
-1.021104423910386583e+00 -6.658604747015968162e-01 1.004080650249898454e+00
-1.021102460053052052e+00 -6.644597422154590038e-01 1.004078719133840725e+00
-1.021112782431982113e+00 -6.630669932690264057e-01 1.004088869418870988e+00
-1.021128165659132669e+00 -6.616774953907892387e-01 1.004103996178053126e+00
-1.021170491717741546e+00 -6.603053770173337167e-01 1.004145616579899647e+00
-1.021248722782321261e+00 -6.589563101750031127e-01 1.004222543382245814e+00
-1.021309240597916945e+00 -6.575956237760275380e-01 1.004282052249519497e+00
-1.021349431920316686e+00 -6.562217116286039875e-01 1.004321573505313259e+00
-1.021407264539769599e+00 -6.548589997509639549e-01 1.004378441943825750e+00
-1.021384904796882376e+00 -6.534448252007777347e-01 1.004356454980835700e+00
-1.021384904796882376e+00 -6.520449862436209498e-01 1.004356454980835700e+00
-1.021416401632807336e+00 -6.506652114790649755e-01 1.004387426703957864e+00
-1.021416401632807336e+00 -6.492653293545403992e-01 1.004387426703957864e+00
-1.021384904796882376e+00 -6.478454693721507063e-01 1.004356454980835700e+00
-1.021338392240517479e+00 -6.464161921114901510e-01 1.004310717878198478e+00
-1.021315273587574568e+00 -6.450018165387765290e-01 1.004287984657642019e+00
-1.021294610351684895e+00 -6.435890516654402260e-01 1.004267665917616625e+00
-1.021281090468193264e+00 -6.421808351662756653e-01 1.004254371436572590e+00
-1.021268589092262369e+00 -6.407732947668770551e-01 1.004242078482610268e+00
-1.021264029033644327e+00 -6.393707603616458623e-01 1.004237594448935456e+00
-1.021238680856634939e+00 -6.379552523737493930e-01 1.004212668874764791e+00
-1.021252833898964596e+00 -6.365644356553545880e-01 1.004226585958671647e+00
-1.021238680856634939e+00 -6.351559752681165127e-01 1.004212668874764791e+00
-1.021238680856634939e+00 -6.337563367152999616e-01 1.004212668874764791e+00
-1.021238680856634939e+00 -6.323566981624835215e-01 1.004212668874764791e+00
-1.021238680856634939e+00 -6.309570596096670814e-01 1.004212668874764791e+00
-1.021252833898964596e+00 -6.295661459054056053e-01 1.004226585958671647e+00
-1.021252833898964596e+00 -6.281664879554158532e-01 1.004226585958671647e+00
-1.021264029033644327e+00 -6.267737007222964341e-01 1.004237594448935456e+00
-1.021252833898964596e+00 -6.253671720554363489e-01 1.004226585958671647e+00
-1.021238680856634939e+00 -6.239588668455846587e-01 1.004212668874764791e+00
-1.015955359020867199e+00 -7.707741603929262331e-01 1.000389009766130100e+00
-1.015954149334115764e+00 -7.693789350382408410e-01 1.000387818614057789e+00
-1.015952965482687320e+00 -7.679837325334859521e-01 1.000386652901462448e+00
-1.015952965482687320e+00 -7.665894265557562370e-01 1.000386652901462448e+00
-1.015952965482687320e+00 -7.651951205780265219e-01 1.000386652901462448e+00
-1.015953471966259070e+00 -7.638011953783230279e-01 1.000387151624752224e+00
-1.015952802532199328e+00 -7.624063863388428341e-01 1.000386492447682851e+00
-1.015952140935826087e+00 -7.610115850077575628e-01 1.000385840988211816e+00
-1.015952140935826087e+00 -7.596172801616458692e-01 1.000385840988211816e+00
-1.015952140935826087e+00 -7.582229753155342866e-01 1.000385840988211816e+00
-1.015952140935826087e+00 -7.568286704694225930e-01 1.000385840988211816e+00
-1.015953471966259070e+00 -7.554353553413206690e-01 1.000387151624752224e+00
-1.021691353415359993e+00 -7.582997064361912676e-01 1.006037117924997393e+00
-1.019622490495116329e+00 -7.553648535216872517e-01 1.003999953880585938e+00
-1.021695416477506724e+00 -7.554983480703929555e-01 1.006041118733380868e+00
-1.021679932638474231e+00 -7.540847327238359155e-01 1.006025872135920096e+00
-1.021635186534037842e+00 -7.526496020528403719e-01 1.005981811626065481e+00
-1.021189232800069124e+00 -7.509195708593167096e-01 1.005542690743080669e+00
-1.020042548743293587e+00 -7.486764515653011598e-01 1.004413576045385836e+00
-1.019917431789933326e+00 -7.471848731288874834e-01 1.004290376119359784e+00
-1.019792108228522620e+00 -7.456934870403127968e-01 1.004166972750907938e+00
-1.019728188540508951e+00 -7.442472604780715484e-01 1.004104032432882265e+00
-1.019722045127052334e+00 -7.428432980083142789e-01 1.004097983148088513e+00
-1.019707678576850629e+00 -7.414333733268042570e-01 1.004083836720489842e+00
-1.019703703376007686e+00 -7.400310294077999673e-01 1.004079922427209448e+00
-1.019702678434865062e+00 -7.386308334472487802e-01 1.004078913190095124e+00
-1.019703557914312553e+00 -7.372320171705648573e-01 1.004079779194261501e+00
-1.019703255757605120e+00 -7.358323457944396795e-01 1.004079481667163654e+00
-1.019702192696039678e+00 -7.344321272122085187e-01 1.004078434893703298e+00
-1.019702369289335664e+00 -7.330328026978070177e-01 1.004078608781257431e+00
-1.019703993783079632e+00 -7.316345165628590497e-01 1.004080208384698247e+00
-1.019703271612711015e+00 -7.302345454651828494e-01 1.004079497279339650e+00
-1.019702892492292179e+00 -7.288348215454216739e-01 1.004079123967759557e+00
-1.019703068645661403e+00 -7.274354947873413746e-01 1.004079297422127315e+00
-1.019714936972263564e+00 -7.260444924585998105e-01 1.004090983903616507e+00
-1.019742563964865845e+00 -7.246646562114484880e-01 1.004118187598667555e+00
-1.019920021709433300e+00 -7.233910134651777568e-01 1.004292926356415983e+00
-1.020878575226274343e+00 -7.226698135753004681e-01 1.005236793028318365e+00
-1.021328939928635826e+00 -7.215869382500530449e-01 1.005680257295353819e+00
-1.021609321285638750e+00 -7.203829638038700134e-01 1.005956342681978866e+00
-1.021632897391686612e+00 -7.189974871990594263e-01 1.005979557557685755e+00
-1.021653237477772702e+00 -7.176096729001787411e-01 1.005999585995350332e+00
-1.021672098554127661e+00 -7.162207659440842367e-01 1.006018158084498015e+00
-1.021683009733993952e+00 -7.148262450280139513e-01 1.006028902084541876e+00
-1.021696114739148120e+00 -7.134332260740051668e-01 1.006041806296338992e+00
-1.015960695076994380e+00 -7.080339623287231765e-01 1.000394264063829031e+00
-1.015950840880369244e+00 -7.066327917709487316e-01 1.000384560852052740e+00
-1.015951000256278380e+00 -7.052385993423793131e-01 1.000384717786022781e+00
-1.015951000256278380e+00 -7.038442960617498079e-01 1.000384717786022781e+00
-1.015952140935826087e+00 -7.024507814710668763e-01 1.000385840988211816e+00
-1.015950360430455612e+00 -7.010552479894995859e-01 1.000384087763536600e+00
-1.015948638887528954e+00 -6.996597600011440488e-01 1.000382392597889414e+00
-1.015948638887528954e+00 -6.982654599612853064e-01 1.000382392597889414e+00
-1.015947121890213412e+00 -6.968701193652030446e-01 1.000380898843829414e+00
-1.015946087794313168e+00 -6.954751135075571966e-01 1.000379880592225712e+00
-1.015945075589993474e+00 -6.940801254443582646e-01 1.000378883896782201e+00
-1.015943665000692997e+00 -6.926848685349247248e-01 1.000377494920366095e+00
-1.015942703984479722e+00 -6.912899214056484887e-01 1.000376548628730822e+00
-1.015941633788931986e+00 -6.898949027738445761e-01 1.000375494830594292e+00
-1.015941236618314703e+00 -6.885003431865249768e-01 1.000375103745378746e+00
-1.015940327203722404e+00 -6.871054382461658783e-01 1.000374208264730447e+00
-1.015937713442571555e+00 -6.857093854495461827e-01 1.000371634551322497e+00
-1.015935263906156960e+00 -6.843134504457017986e-01 1.000369222546418468e+00
-1.015935263906156960e+00 -6.829191687618271223e-01 1.000369222546418468e+00
-1.015934482338713529e+00 -6.815243627751917943e-01 1.000368452954060183e+00
-1.015933186783037678e+00 -6.801292148379518565e-01 1.000367177248736805e+00
-1.015932661773079282e+00 -6.787345852507739030e-01 1.000366660282919762e+00
-1.015931937461932888e+00 -6.773398242270222136e-01 1.000365947069584038e+00
-1.015931229134865665e+00 -6.759450758263089165e-01 1.000365249595421169e+00
-1.015931937461932888e+00 -6.745512699897763254e-01 1.000365947069584038e+00
-1.015931937461932888e+00 -6.731569928711533812e-01 1.000365947069584038e+00
-1.015932661773079282e+00 -6.717631946873929838e-01 1.000366660282919762e+00
-1.015933508304297517e+00 -6.703694751631319448e-01 1.000367493843685507e+00
-1.015935494906718972e+00 -6.689765040330805101e-01 1.000369450007617012e+00
-1.015936062734625889e+00 -6.675825951580482975e-01 1.000370009135331140e+00
-1.015937351613287687e+00 -6.661891575451138747e-01 1.000371278265944630e+00
-1.015937236211783112e+00 -6.647947974812228322e-01 1.000371164632608556e+00
-1.015939059520342580e+00 -6.634017036993521410e-01 1.000372960004647371e+00
-1.015939437118440036e+00 -6.620076628572518773e-01 1.000373331817230760e+00
-1.015941633788931986e+00 -6.606148038283095048e-01 1.000375494830594292e+00
-1.015945507821018889e+00 -6.592230271701863265e-01 1.000379309505214254e+00
-1.015946529255851161e+00 -6.578293928105313215e-01 1.000380315289741473e+00
-1.015950840880369244e+00 -6.564378815425466751e-01 1.000384560852052740e+00
-1.015956066646824807e+00 -6.550469478412707103e-01 1.000389706549925428e+00
