-1.391919306060309003e+00 -1.235862001805759336e+00 1.604027259507229353e+00
-1.386717538566880847e+00 -1.229016153436464753e+00 1.598032819441092434e+00
-1.407528658355967188e+00 -1.245199863210851188e+00 1.622015246653089493e+00
-1.423132757900956724e+00 -1.256718584347329859e+00 1.639997180606624916e+00
-1.419665807543174507e+00 -1.251376836575672558e+00 1.636001918196635652e+00
-1.405793630892254287e+00 -1.236891160480195540e+00 1.620015826617982269e+00
-1.386720196034035402e+00 -1.217882059715783782e+00 1.598035881867009289e+00
-1.364179282558406703e+00 -1.195894497399395906e+00 1.572060065947450846e+00
-1.346839757918805169e+00 -1.178530736236181431e+00 1.552078253734830326e+00
-1.352037759942823048e+00 -1.180907580968390436e+00 1.558068354529607902e+00
-1.357236548368003337e+00 -1.183268413691766829e+00 1.564059361561475736e+00
-1.367642996642664199e+00 -1.190144333356762729e+00 1.576051598923606800e+00
-1.386715643346119409e+00 -1.204514366439946471e+00 1.598030635416666012e+00
-1.404058404666032933e+00 -1.217323315816074114e+00 1.618016177531895083e+00
-1.414462744839984909e+00 -1.224072064746447586e+00 1.630005985549890957e+00
-1.419666956996710638e+00 -1.226295567797256680e+00 1.636003242809921598e+00
-1.417932994864746776e+00 -1.222520364442439389e+00 1.634005050447394636e+00
-1.405793307021321770e+00 -1.209795785148648051e+00 1.620015453393901073e+00
-1.384983356305470092e+00 -1.189662684530302883e+00 1.596034373404640716e+00
-1.374577239597888800e+00 -1.178516329626942971e+00 1.584042518135517330e+00
-1.374578074752844881e+00 -1.176309258014311965e+00 1.584043480555759276e+00
-1.378045926641468855e+00 -1.177063550206230103e+00 1.588039781876581458e+00
-1.374576793822529508e+00 -1.171892590666985479e+00 1.584042004430574302e+00
-1.364174531297545512e+00 -1.160833085429688216e+00 1.572054590664576867e+00
-1.374578343935134228e+00 -1.167478336054722732e+00 1.584043790757455605e+00
-1.395385282031349039e+00 -1.182909202232402368e+00 1.608021399048321642e+00
-1.400589664428897541e+00 -1.185071544144017830e+00 1.614018852491363010e+00
-1.400589664428897541e+00 -1.182821977811170377e+00 1.614018852491363010e+00
-1.381518295590135059e+00 -1.164496945214368528e+00 1.592041288590711146e+00
-1.365911826439079046e+00 -1.149148212659294455e+00 1.574056623938126620e+00
-1.371110145336489117e+00 -1.151319365830580699e+00 1.580047089893123813e+00
-1.355503171866499823e+00 -1.136037060595650683e+00 1.562061844070846028e+00
-1.355504126361807060e+00 -1.133860708652687288e+00 1.562062944017146959e+00
-1.378043617041593505e+00 -1.150501331251575943e+00 1.588037120327781437e+00
-1.384979662430431357e+00 -1.154067603991157265e+00 1.596030116637578322e+00
-1.379776910531959722e+00 -1.147516148086645371e+00 1.590034542157602093e+00
-1.371109755803445518e+00 -1.138105736841882765e+00 1.580046641000995011e+00
-1.374580123487736838e+00 -1.138778565310957447e+00 1.584045841487603301e+00
-1.400589998332737229e+00 -1.158077024238044039e+00 1.614019237277218410e+00
-1.404059474749246084e+00 -1.158690619400373434e+00 1.618017410679992274e+00
-1.400591941192894874e+00 -1.153579490711460043e+00 1.614021476200582006e+00
-1.400590360846947435e+00 -1.151328621628496141e+00 1.614019655033242628e+00
-1.388451825721183974e+00 -1.139120299032602368e+00 1.600031386354564544e+00
-1.379781086008431190e+00 -1.129790464718027243e+00 1.590039353915045695e+00
-1.378045926641468855e+00 -1.126156326334956548e+00 1.588039781876581458e+00
-1.365906544583546767e+00 -1.114042012032528284e+00 1.574050537205786915e+00
-1.334695896288996098e+00 -1.086442679370141162e+00 1.538083846871524996e+00
-1.315623570000591602e+00 -1.068804705151106926e+00 1.516105179620039989e+00
-1.319085516609262543e+00 -1.069498511924335427e+00 1.520094675783423499e+00
-1.331221028124613293e+00 -1.077199687792582461e+00 1.534079460098098924e+00
-1.341624352355328176e+00 -1.083463008518224857e+00 1.546068097358106685e+00
-1.343356220734652551e+00 -1.082703982597341463e+00 1.548063876911001779e+00
-1.355496708768048508e+00 -1.090311704246356150e+00 1.562054396091604680e+00
-1.362435647842029418e+00 -1.093704846651212925e+00 1.570050727041441441e+00
-1.376313256034665145e+00 -1.102634620102125318e+00 1.586043077848582561e+00
-1.390185837364659172e+00 -1.111515795127406392e+00 1.602029635773426275e+00
-1.391921292504919139e+00 -1.110667725612748180e+00 1.604029548656672244e+00
-1.397124071414130198e+00 -1.112575223677045422e+00 1.610025154263426073e+00
-1.386723452960437752e+00 -1.102065578758894882e+00 1.598039635100913625e+00
-1.372855783243899230e+00 -1.088839555740260590e+00 1.582058737246906155e+00
-1.376320694131591527e+00 -1.089377059744026210e+00 1.586051649401672314e+00
-1.376318047753433804e+00 -1.087164382783197381e+00 1.586048599754551702e+00
-1.352045981921124351e+00 -1.065820090702714440e+00 1.558077829416022242e+00
-1.339906488829707865e+00 -1.054098408508469698e+00 1.544088456791868014e+00
-1.364184810047148977e+00 -1.071006960182313561e+00 1.572066435743875612e+00
-1.374587658051760863e+00 -1.076966322278863686e+00 1.584054524207952452e+00
-1.365918812655286807e+00 -1.067980548124779050e+00 1.574064674750547566e+00
-1.364187022219698342e+00 -1.064435402968952005e+00 1.572068985018863163e+00
-1.350318149576883897e+00 -1.051445103154158067e+00 1.556086700930374267e+00
-1.338182685024214447e+00 -1.039846314101432467e+00 1.542101970734799155e+00
-1.362452184312882730e+00 -1.056516824773136687e+00 1.570069783426326193e+00
-1.338180165771965857e+00 -1.035545702685496172e+00 1.542099067585699146e+00
-1.353783909960448284e+00 -1.045446212645388728e+00 1.560080592031642066e+00
-1.367649488596899721e+00 -1.053957109130241987e+00 1.576059080155827630e+00
-1.352043132603971243e+00 -1.039758728576843039e+00 1.558074545904998942e+00
-1.322572287743771557e+00 -1.014970571974231239e+00 1.524112779363899994e+00
-1.332972913210517252e+00 -1.020811273611482495e+00 1.536098306608151276e+00
-1.353772773636971127e+00 -1.034565757356262772e+00 1.560067758696871643e+00
-1.343367922899131095e+00 -1.024456614297286405e+00 1.548077362312588745e+00
-1.319093424770330092e+00 -1.003826134865250408e+00 1.520103789031490127e+00
-1.329502067770542695e+00 -1.009611692409769113e+00 1.532098555562946496e+00
-1.338170396501661141e+00 -1.014045030635067013e+00 1.542087809622823213e+00
-1.332968456493867304e+00 -1.007962124088241485e+00 1.536093170753678017e+00
-1.327769557175577653e+00 -1.001898222222251666e+00 1.530102035930228199e+00
-1.305232970009039928e+00 -9.827963276724565045e-01 1.504131205585397035e+00
-1.254969755659768538e+00 -9.429341475105853521e-01 1.446208619401228690e+00
-1.249770573015230202e+00 -9.370203620870918293e-01 1.440217158076792403e+00
-1.261906115070205558e+00 -9.440922132450205728e-01 1.454201977584880678e+00
-1.289642688469958332e+00 -9.627718999476675421e-01 1.486165195297875607e+00
-1.308712110600247502e+00 -9.749060200239556551e-01 1.508140515840422191e+00
-1.324317458263820635e+00 -9.844039351843939523e-01 1.526123888107387749e+00
-1.334717098438799265e+00 -9.899905274923157528e-01 1.538108279915952226e+00
-1.331248913928080091e+00 -9.852799006354804323e-01 1.534111595286338225e+00
-1.267112335429333658e+00 -9.357761502220749428e-01 1.460201549067712934e+00
-1.475125897912604511e+00 -1.087027130401073460e+00 1.699913307585357858e+00
-1.466464375907452045e+00 -1.078289043142202308e+00 1.689931897495996926e+00
-1.332978715230588973e+00 -9.779962656764384921e-01 1.536104992770427113e+00
-1.350325617363598685e+00 -9.885547204002029797e-01 1.556095306697537817e+00
-1.353798440443027884e+00 -9.889227138759850710e-01 1.560097336745254637e+00
-1.352068938668322451e+00 -9.854877129334709274e-01 1.558104284432584530e+00
-1.388470831042124765e+00 -1.009789999328881027e+00 1.600053287805842661e+00
-1.404069827591491793e+00 -1.018879489781189251e+00 1.618029341142558142e+00
-1.386737036892808250e+00 -1.004074433143832046e+00 1.598055289024038927e+00
-1.379802455300513486e+00 -9.968372331094681460e-01 1.590063979571768149e+00
-1.372868736911394549e+00 -9.896229313571214270e-01 1.582073664862093665e+00
-1.367666718969822837e+00 -9.836764057853082388e-01 1.576078936183213708e+00
-1.369400501609707055e+00 -9.827239346272054199e-01 1.578076921701717650e+00
-1.353798368965349219e+00 -9.693529519994533716e-01 1.560097254375432785e+00
-1.345132175210236980e+00 -9.609872510570275361e-01 1.550110460630387266e+00
-1.343401024579258474e+00 -9.575927726754752678e-01 1.548115508200090140e+00
-1.334736037378360995e+00 -9.492724681337080250e-01 1.538130104870309101e+00
-1.322605124364810480e+00 -9.385205773375973060e-01 1.524150619801220907e+00
-1.305272285075217198e+00 -9.241247231305984577e-01 1.504176511687254525e+00
-1.258487006337784653e+00 -8.889797072809635381e-01 1.450261847157675810e+00
-1.185750548461104836e+00 -8.356950690265309012e-01 1.366441426903271417e+00
-1.182294928409797885e+00 -8.313606610864545665e-01 1.362459221371195905e+00
-1.189225312660861400e+00 -8.343238544379667498e-01 1.370445693869396742e+00
-1.201352454927642643e+00 -8.409023237952190089e-01 1.384420833585575439e+00
-1.216936022923221561e+00 -8.498556556940640716e-01 1.402379107284676074e+00
-1.237723135701619626e+00 -8.623845019328766348e-01 1.426333869171969582e+00
-1.249851775537187182e+00 -8.688276829496471843e-01 1.440310734664309145e+00
-1.253316868302871478e+00 -8.692234002326971742e-01 1.444303856412588294e+00
-1.265446646057111213e+00 -8.756033616457479241e-01 1.458282033225606567e+00
-1.272374729801313054e+00 -8.783534932404303275e-01 1.466265854653662215e+00
-1.265445827889513541e+00 -8.715377871934003595e-01 1.458281090381345679e+00
-1.263714771041078988e+00 -8.683158499879476411e-01 1.456286246024667497e+00
-1.255053917523075713e+00 -8.603490449414398222e-01 1.446305606290028800e+00
-1.234265773216838502e+00 -8.441161891492346969e-01 1.422349655685281711e+00
-1.244660851578132332e+00 -8.492262783853385955e-01 1.434328790527101827e+00
-1.251587811234593728e+00 -8.519422645420837714e-01 1.442311316573040125e+00
-1.251587811234593728e+00 -8.499320185190964994e-01 1.442311316573040125e+00
-1.242921183019394027e+00 -8.420503324806074552e-01 1.432324022162603683e+00
-1.206551999649545071e+00 -8.154731411022339005e-01 1.390412712162620856e+00
-1.189237572878074412e+00 -8.018607256339804756e-01 1.370459822362716462e+00
-1.133883961092958526e+00 -7.627165528108301729e-01 1.306671137322622966e+00
-1.033760955039838780e+00 -6.937075913865358157e-01 1.191290863255174193e+00
-1.047557777993328720e+00 -7.012834383207081634e-01 1.207190118345349727e+00
-1.064815411302565629e+00 -7.111262328291392265e-01 1.227077560197813444e+00
-1.080347454881590119e+00 -7.197639442844202540e-01 1.244976457919927393e+00
-1.080347454881590119e+00 -7.180287370899062216e-01 1.244976457919927393e+00
-1.068267373777279206e+00 -7.082841770741946652e-01 1.231055550792619302e+00
-1.063092885908068386e+00 -7.031458869988866933e-01 1.225092547362703455e+00
-1.066543760839833599e+00 -7.037153121345128826e-01 1.229069284689070951e+00
-1.030344155051196697e+00 -6.781755876279624839e-01 1.187353393390216061e+00
-1.040680966482955050e+00 -6.833078110569479335e-01 1.199265382282629799e+00
-1.061372907633773011e+00 -6.951893426728223968e-01 1.223110469791311106e+00
-1.073455896678677579e+00 -7.013794493851809309e-01 1.237034727986429772e+00
-1.073455896678677579e+00 -6.996553111123559043e-01 1.237034727986429772e+00
-1.083813150480981591e+00 -7.046651712422643543e-01 1.248970274364871180e+00
-1.166781212340374685e+00 -7.567346645027506202e-01 1.344581444000578552e+00
-1.171969075534594174e+00 -7.582169704991238435e-01 1.350559860957575520e+00
-1.192739253631771357e+00 -7.697387163696786105e-01 1.374495107568235452e+00
-1.223901178375190080e+00 -7.878834035238211353e-01 1.410405649601475186e+00
-1.185812633005965955e+00 -7.614593943971186274e-01 1.366512972216220145e+00
-1.114897060794121986e+00 -7.141308696990676941e-01 1.284790913720379013e+00
-1.107980716399763699e+00 -7.079211167602018628e-01 1.276820620545775942e+00
-1.097615659598887294e+00 -6.995356377600038256e-01 1.264876082106974886e+00
-1.101070351908699063e+00 -6.999689010029276348e-01 1.268857218523447683e+00
-1.114897060794121986e+00 -7.069680726108122926e-01 1.284790913720379013e+00
-1.114897060794121986e+00 -7.051773733387483034e-01 1.284790913720379013e+00
-1.107980716399763699e+00 -6.990231640608528529e-01 1.276820620545775942e+00
-1.104525373667994748e+00 -6.950691534445518904e-01 1.272838734592641963e+00
-1.121809713313201007e+00 -7.041442507255769589e-01 1.292756952432412954e+00
-1.130449652283926909e+00 -7.077517402812428804e-01 1.302713490551529407e+00
-1.125266468551617827e+00 -7.026992992615873623e-01 1.296740466137355385e+00
-1.094161305478859925e+00 -6.815175490245005685e-01 1.260895335415417096e+00
-1.094161305478859925e+00 -6.797601546226839098e-01 1.260895335415417096e+00
-1.107980716399763699e+00 -6.865660302817643279e-01 1.276820620545775942e+00
-1.107980716399763699e+00 -6.847864397418945703e-01 1.276820620545775942e+00
-1.090709600429534687e+00 -6.723601923365881694e-01 1.256917641473828340e+00
-1.088990688845486998e+00 -6.695514919080598482e-01 1.254936793140529971e+00
-1.088990688845486998e+00 -6.678024023262728592e-01 1.254936793140529971e+00
-1.066546667693701655e+00 -6.523260010304600121e-01 1.229072634504554840e+00
-1.052752277110410528e+00 -6.421981296920176163e-01 1.213176182441887407e+00
-1.035509500025991514e+00 -6.300165301150429942e-01 1.193305860683582686e+00
-1.040685153842258570e+00 -6.314939572974601623e-01 1.199270207733673432e+00
-1.044136715953070782e+00 -6.319113386918872033e-01 1.203247736955029845e+00
-1.020012126446809608e+00 -6.156728425767576951e-01 1.175446916157456556e+00
-1.007963225649530337e+00 -6.067812557774725502e-01 1.161561940755659217e+00
-9.907764930991526109e-01 -5.948437155244141739e-01 1.141756203891002519e+00
-9.770257287080212905e-01 -5.850187568933362670e-01 1.125910026008130282e+00
-9.907764930991526109e-01 -5.916610311181840220e-01 1.141756203891002519e+00
-1.025186241044756752e+00 -6.105628570587712245e-01 1.181409489435078841e+00
-1.007972987060473891e+00 -5.986923196978750639e-01 1.161573189661523786e+00
-9.856218535381314760e-01 -5.838336509095546356e-01 1.135816073358425493e+00
-9.787417326527413364e-01 -5.781861949987838756e-01 1.127887523620792587e+00
-9.753066390160557431e-01 -5.745904374837191853e-01 1.123928972425896733e+00
-9.667348927162245920e-01 -5.679877663206444049e-01 1.114051018533996684e+00
-9.581590452650171619e-01 -5.614102273204244486e-01 1.104168338535795435e+00
-9.512889381448550452e-01 -5.558569344276734769e-01 1.096251328513378809e+00
-9.564325871569812065e-01 -5.573262897282673656e-01 1.102178793699661874e+00
-9.615548023660192012e-01 -5.587666666744255384e-01 1.108081558887691775e+00
-1.120038589540236496e+00 -6.490638199588321111e-01 1.290715935543411685e+00
-1.303549157792279312e+00 -7.533147289500415900e-01 1.502190805244791205e+00
-1.320872879850023107e+00 -7.612044951192771247e-01 1.522154406795370951e+00
-1.331264651433758051e+00 -7.650549391424090739e-01 1.534129730955549942e+00
-1.329526719531762602e+00 -7.619207514013883742e-01 1.532126963888644111e+00
-1.320853756133277157e+00 -7.548289803993671887e-01 1.522132368906514932e+00
-1.308713276233070433e+00 -7.457890555947767064e-01 1.508141859098479198e+00
-1.284444038303329316e+00 -7.298958635480378154e-01 1.480174347593121276e+00
-1.227260338597270461e+00 -6.954295847091676031e-01 1.414276696250378995e+00
-1.246314710219778910e+00 -7.042250068218484094e-01 1.436234672809948432e+00
-1.312180676537548107e+00 -7.393347328415501574e-01 1.512137640020397633e+00
-1.352055450017958016e+00 -7.596301518659759333e-01 1.558088740311036391e+00
-1.369395203063438871e+00 -7.671727442276365938e-01 1.578070815735220345e+00
-1.376330239947802347e+00 -7.688473401642996752e-01 1.586062649859349527e+00
-1.384997423439254360e+00 -7.714644904211424015e-01 1.596050584161941677e+00
-1.384997423439254360e+00 -7.692399676690629962e-01 1.596050584161941677e+00
-1.383266628135273457e+00 -7.660569256391307480e-01 1.594056041205230922e+00
-1.391933453989973923e+00 -7.686209749226027288e-01 1.604043563372510306e+00
-1.388467819207174214e+00 -7.644771662925988753e-01 1.600049817011709230e+00
-1.379800895583586984e+00 -7.574890643197040863e-01 1.590062182177008010e+00
-1.376333452934924262e+00 -7.533748855965047841e-01 1.586066352458275652e+00
-1.378064046415084620e+00 -7.521087880243895185e-01 1.588060662836195291e+00
-1.374594956120104294e+00 -7.480076408718637770e-01 1.584062934394170563e+00
-1.358991185064693186e+00 -7.373338487788758666e-01 1.566081378987175698e+00
-1.398339584594393781e+00 -1.243560565265716455e+00 1.614019237277218410e+00
-1.389683608542674254e+00 -1.233627057819305151e+00 1.604028164994916850e+00
-1.398341004000340115e+00 -1.239062689255643113e+00 1.614020875612089512e+00
-1.412192417785989695e+00 -1.249064502457596371e+00 1.630008729034696957e+00
-1.410461101317791899e+00 -1.245264109926597085e+00 1.628010374617592682e+00
-1.400073386817427767e+00 -1.233840676331714903e+00 1.616020460851549601e+00
-1.386223095556662122e+00 -1.219404775339567593e+00 1.600033903091867327e+00
-1.360256949635495261e+00 -1.194375098025828530e+00 1.570062743370413072e+00
-1.342945323542214187e+00 -1.177014154031228887e+00 1.550080975099717540e+00
-1.353326319490000929e+00 -1.183935346342152473e+00 1.562063134044809898e+00
-1.363712344195633586e+00 -1.190827529212255431e+00 1.574051097382478170e+00
-1.368907344455901454e+00 -1.193161714615031288e+00 1.580047373573260971e+00
-1.386218741942464971e+00 -1.206020540237985994e+00 1.600028877976978903e+00
-1.401803612214035155e+00 -1.217324352846656410e+00 1.618017555910372662e+00
-1.415653713404146696e+00 -1.227074341082184716e+00 1.634003894282936242e+00
-1.420848090949599074e+00 -1.229290997840265298e+00 1.639999451711479539e+00
-1.419117016484839011e+00 -1.225510312443507166e+00 1.638001376624380834e+00
-1.410460295507194539e+00 -1.215765541023069440e+00 1.628009444518909943e+00
-1.384490723364634857e+00 -1.191153425525706355e+00 1.598034330116275159e+00
-1.365446343894901382e+00 -1.172571849526693910e+00 1.576052548891742955e+00
-1.368906814452427012e+00 -1.173341298292409185e+00 1.580046761822143209e+00
-1.375831735843966674e+00 -1.177063550206230103e+00 1.588039781876581458e+00
-1.384485513941041690e+00 -1.182239826567383023e+00 1.598028317192098813e+00
-1.368906251852000988e+00 -1.166734167327400762e+00 1.580046112446326090e+00
-1.368908893203218069e+00 -1.164534198085075634e+00 1.580049161199092556e+00
-1.387951431183007234e+00 -1.178500877461655882e+00 1.602028816902593800e+00
-1.401801352733500039e+00 -1.188005623248657550e+00 1.618014947927955305e+00
-1.387952667039381138e+00 -1.174036212811160995e+00 1.602030243377238206e+00
-1.374105110157012755e+00 -1.160112313302531062e+00 1.586046841745998526e+00
-1.368909252215385841e+00 -1.153523398131718558e+00 1.580049575585233956e+00
-1.368906709776478658e+00 -1.151319038740201917e+00 1.580046641000995011e+00
-1.344672444867203387e+00 -1.128773579028274909e+00 1.552074487315459272e+00
-1.353324628537950547e+00 -1.133859429854131573e+00 1.562061182280611416e+00
-1.372365085466393797e+00 -1.147604363895482482e+00 1.584038435951771628e+00
-1.368904114974569097e+00 -1.142508005147209182e+00 1.580043645977293298e+00
-1.367173606854561907e+00 -1.138864268121195344e+00 1.578046224587862811e+00
-1.355058497768010017e+00 -1.126592366778546461e+00 1.564062483197120157e+00
-1.361985802579388727e+00 -1.130160628258076061e+00 1.572058254289655732e+00
-1.398339584594393781e+00 -1.158077024238044039e+00 1.614019237277218410e+00
-1.401803486390634124e+00 -1.158690619400373434e+00 1.618017410679992274e+00
-1.398341524332839203e+00 -1.153579490711460043e+00 1.614021476200582006e+00
-1.398340981167710328e+00 -1.151329473504656198e+00 1.614020849257758794e+00
-1.389681428188131118e+00 -1.141963958819114611e+00 1.604025648342870758e+00
-1.365445471480631001e+00 -1.119851530452424138e+00 1.576051541916448251e+00
-1.349864823920075008e+00 -1.104901690774064305e+00 1.558067738004276226e+00
-1.334282853103283095e+00 -1.090000900570159414e+00 1.540082406737057985e+00
-1.330817939342263223e+00 -1.085029404981393109e+00 1.536083065284234328e+00
-1.337738249528858780e+00 -1.088519529291374965e+00 1.544070762902285177e+00
-1.330814521331407763e+00 -1.080744745242202320e+00 1.536079120079982818e+00
-1.320427121798964043e+00 -1.070184988148388694e+00 1.524089569862457250e+00
-1.325620954750901470e+00 -1.072261924995953963e+00 1.530084498699477047e+00
-1.330810748313335345e+00 -1.074318889910985453e+00 1.536074765112263707e+00
-1.342932218980016357e+00 -1.081943715957941698e+00 1.550065849292140863e+00
-1.360247460102105954e+00 -1.093705587233780641e+00 1.570051790173055295e+00
-1.377562652274861854e+00 -1.105411707738033211e+00 1.590037674554699576e+00
-1.387952140629012066e+00 -1.111515795127406392e+00 1.602029635773426275e+00
-1.387954773817508869e+00 -1.109285043474234067e+00 1.602032675104455572e+00
-1.394878223437944653e+00 -1.112574423546623503e+00 1.610023996382072609e+00
-1.382764204119985907e+00 -1.100687601823078676e+00 1.596041512845639776e+00
-1.370649931767697005e+00 -1.088839555740260590e+00 1.582058737246906155e+00
-1.370646920836781746e+00 -1.086632147334435583e+00 1.582055261910533694e+00
-1.368910309674074011e+00 -1.083053160429118478e+00 1.580050796146165171e+00
-1.346404472817215536e+00 -1.063080997069513867e+00 1.554073662953208590e+00
-1.334285942865163666e+00 -1.051366044497950458e+00 1.540085973063270108e+00
-1.358526831425926895e+00 -1.068281414630123161e+00 1.568065772031139282e+00
-1.370644071596245128e+00 -1.075604828746074215e+00 1.582051973203635553e+00
-1.360258121404062992e+00 -1.065266212118337164e+00 1.570064095872359511e+00
-1.353340864858069148e+00 -1.057671888469285504e+00 1.562079922887902317e+00
-1.355071579237686841e+00 -1.056844527963802127e+00 1.564077582350389406e+00
-1.351609110078533460e+00 -1.051969696805230337e+00 1.560081062554395936e+00
-1.358531824464384252e+00 -1.055172182070766462e+00 1.568071535194974109e+00
-1.337761329355137141e+00 -1.036887618542576162e+00 1.544097402556927401e+00
-1.342954693726811755e+00 -1.038752484935616671e+00 1.550091790539946723e+00
-1.356799739527437154e+00 -1.047278651050828957e+00 1.566072293780635283e+00
-1.349870722088355013e+00 -1.039758728576843039e+00 1.558074545904998942e+00
-1.323907934743816739e+00 -1.017630665885269181e+00 1.528107262786444265e+00
-1.320444558492658516e+00 -1.012844264714596099e+00 1.524109695988734137e+00
-1.337747218794611559e+00 -1.023964145057460584e+00 1.544081115586017017e+00
-1.334283442165896671e+00 -1.019166317590102677e+00 1.540083086656585776e+00
-1.313509947641186892e+00 -1.001185792073880254e+00 1.516105491973760655e+00
-1.322172338731769203e+00 -1.005661421119354415e+00 1.526103968749396023e+00
-1.336020276160864606e+00 -1.014045030635067013e+00 1.542087809622823213e+00
-1.329095269083132358e+00 -1.006650750356161028e+00 1.534094690665969374e+00
-1.320442958906360209e+00 -9.979732783922203865e-01 1.524107849682525107e+00
-1.291020516395914308e+00 -9.736592682695592860e-01 1.490147294791048349e+00
-1.246034174805535910e+00 -9.377270123958812986e-01 1.438222267750741690e+00
-1.261601850559069815e+00 -9.474131753549188684e-01 1.456191099086648011e+00
-1.266794372653790468e+00 -9.492746097886123335e-01 1.462184514880063624e+00
-1.280646112772288792e+00 -9.575942073111590735e-01 1.478172744969041608e+00
-1.296224399774464020e+00 -9.671574729305463247e-01 1.496153824230721296e+00
-1.306608582387180029e+00 -9.728034722548648539e-01 1.508139661351383998e+00
-1.310071183780969761e+00 -9.732739016259909226e-01 1.512136333777860608e+00
-1.306607406345319911e+00 -9.685986096406433710e-01 1.508138303917033296e+00
-1.247779340592887198e+00 -9.229815356192748732e-01 1.440236607603561092e+00
-1.464107256253479594e+00 -1.080643778699103663e+00 1.689930903097282000e+00
-1.441616805009150459e+00 -1.061724599694732651e+00 1.663971528591037474e+00
-1.291037098945014172e+00 -9.487484355264668157e-01 1.490166435029617986e+00
-1.336046118694913964e+00 -9.796750006246411902e-01 1.542117638104799626e+00
-1.342973688858395631e+00 -9.825942434619445720e-01 1.550113715477300147e+00
-1.356819672621532691e+00 -9.905419631953356063e-01 1.566095301351673630e+00
-1.379316322224144020e+00 -1.004746608598362512e+00 1.592061830249896781e+00
-1.379316322224144020e+00 -1.002527645240150811e+00 1.592061830249896781e+00
-1.375856229091197092e+00 -9.977993508856769500e-01 1.588068052957976040e+00
-1.372394498686357434e+00 -9.930810045723394985e-01 1.584072385861632348e+00
-1.372392020127617629e+00 -9.908713871113887794e-01 1.584069525010426416e+00
-1.368929380953310293e+00 -9.861690972006600386e-01 1.580072808976171528e+00
-1.365469205081027093e+00 -9.814797188585880905e-01 1.576078936183213708e+00
-1.351623138203960739e+00 -9.693529519994533716e-01 1.560097254375432785e+00
-1.339509798680786234e+00 -9.585106192225882893e-01 1.546115555485212845e+00
-1.334321207710106760e+00 -9.526512506549789094e-01 1.540126677151722134e+00
-1.318746999718413138e+00 -9.394103745293802543e-01 1.522150306046386348e+00
-1.304906032473513777e+00 -9.274514951094533499e-01 1.506174510437145120e+00
-1.280685551463650818e+00 -9.081766905716301963e-01 1.478218266677253423e+00
-1.225334394075421773e+00 -8.669540989204321813e-01 1.414329756465283694e+00
-1.171755894980966550e+00 -8.271609460890725352e-01 1.352487319051932202e+00
-1.187313140478519102e+00 -8.362329708956681706e-01 1.370444111371000639e+00
-1.199417196489767523e+00 -8.428283902488421520e-01 1.384415094862040618e+00
-1.204611896391967418e+00 -8.445407877841768496e-01 1.390411024367579795e+00
-1.209798694609435454e+00 -8.462309443846061097e-01 1.396397833433917324e+00
-1.213258147040273238e+00 -8.466989462109116849e-01 1.400390871201947940e+00
-1.270330327388276892e+00 -8.844843924487162390e-01 1.466265854653662215e+00
-1.276737355864314249e+00 -8.868914309501876314e-01 1.473661102079992347e+00
-1.268602216298964080e+00 -8.791994661389780363e-01 1.464271200012520868e+00
-1.263413375420581408e+00 -8.735708561637476333e-01 1.458282033225606567e+00
-1.268601423606192657e+00 -8.751172133461068148e-01 1.464270285054955156e+00
-1.270333881550269384e+00 -8.742686731455102667e-01 1.466269957008978109e+00
-1.258225818839776355e+00 -8.639115070510411387e-01 1.452294348826103754e+00
-1.240930615484084898e+00 -8.500400961290388580e-01 1.432331536333167898e+00
-1.247849062065268466e+00 -8.527717801436468514e-01 1.440317082903634249e+00
-1.253037345520050083e+00 -8.543016055440070256e-01 1.446305606290028800e+00
-1.242660978750749656e+00 -8.452280379032983681e-01 1.434328790527101827e+00
-1.227089875303049249e+00 -8.326628783872609407e-01 1.416356002810080783e+00
-1.199427280051858391e+00 -8.119623815933287858e-01 1.384426733710983015e+00
-1.176960680833395445e+00 -7.948600029135087786e-01 1.358494890162897484e+00
-1.104447759356222081e+00 -7.441116546955730549e-01 1.274797588373877133e+00
-1.018345141998709957e+00 -6.844625436025358889e-01 1.175414518391449281e+00
-1.038996550444344358e+00 -6.966715430178114232e-01 1.199251196459739432e+00
-1.052768480224631764e+00 -7.042123124691379576e-01 1.215147306277915229e+00
-1.078611594453096290e+00 -7.197639442844202540e-01 1.244976457919927393e+00
-1.082058955142679357e+00 -7.203236355083584286e-01 1.248955538918649300e+00
-1.068277753168407340e+00 -7.094309449860005667e-01 1.233048726764912173e+00
-1.064830079652051786e+00 -7.054283484347430022e-01 1.229069284689070951e+00
-1.061384749452410015e+00 -7.014383933442026597e-01 1.225092547362703455e+00
-1.026968894006627941e+00 -6.770418253391609076e-01 1.185368396399075763e+00
-1.028686832263906892e+00 -6.765195060231382618e-01 1.187351309152351542e+00
-1.059667534772558817e+00 -6.951893426728223968e-01 1.223110469791311106e+00
-1.102762837875730151e+00 -7.216877305249184138e-01 1.272852784899259015e+00
-1.132096564898137370e+00 -7.390635276152951461e-01 1.306710940841355528e+00
-1.137272471844476662e+00 -7.406129235178895431e-01 1.312685178768812744e+00
-1.197734138629550804e+00 -7.780598375734280037e-01 1.382472442452162387e+00
-1.176998840869959428e+00 -7.626964980480555045e-01 1.358538935996819408e+00
-1.161448667049822525e+00 -7.507514982811256399e-01 1.340590306089452621e+00
-1.144181867827427146e+00 -7.377496790633415458e-01 1.320660278778359231e+00
-1.061386413664302975e+00 -6.826570335218912211e-01 1.225094468262347469e+00
-1.068277753168407340e+00 -6.853707869680645270e-01 1.233048726764912173e+00
-1.095852053288173478e+00 -7.012985803954877584e-01 1.264876082106974886e+00
-1.116556314929350480e+00 -7.127521744522081759e-01 1.288773765438433472e+00
-1.116556314929350480e+00 -7.109559240125604695e-01 1.288773765438433472e+00
-1.120007232934466135e+00 -7.113514590236892365e-01 1.292756952432412954e+00
-1.113105687397598853e+00 -7.051773733387483034e-01 1.284790913720379013e+00
-1.113105687397598853e+00 -7.033866740666845363e-01 1.284790913720379013e+00
-1.123458433992510441e+00 -7.081213617558896889e-01 1.296740466137355385e+00
-1.135541672976438710e+00 -7.139106935860725089e-01 1.310687421786426166e+00
-1.135541672976438710e+00 -7.120839006137437144e-01 1.310687421786426166e+00
-1.128633289586040034e+00 -7.059360611117168061e-01 1.302713490551529407e+00
-1.113105687397598853e+00 -6.944331777063652567e-01 1.284790913720379013e+00
-1.109650559114970125e+00 -6.904924861702392835e-01 1.280802867056420213e+00
-1.109650559114970125e+00 -6.887073453063038420e-01 1.280802867056420213e+00
-1.109650559114970125e+00 -6.869222044423682894e-01 1.280802867056420213e+00
-1.095854346411832880e+00 -6.766187993534592549e-01 1.264878728921625894e+00
-1.087240940803573697e+00 -6.695514919080598482e-01 1.254936793140529971e+00
-1.076898590593593719e+00 -6.614499499335038113e-01 1.242999240645076942e+00
-1.064832981835299508e+00 -6.523260010304600121e-01 1.229072634504554840e+00
-1.039013021262214176e+00 -6.348369639533493203e-01 1.199270207733673432e+00
-1.018375536747662791e+00 -6.205891578058968516e-01 1.175449601221158602e+00
-1.026971687631552665e+00 -6.241754451422151240e-01 1.185371620912219592e+00
-1.035569915519723105e+00 -6.277353335353771380e-01 1.195296037964337810e+00
-1.011505141721113832e+00 -6.115206482966737411e-01 1.167519517668700102e+00
-9.977652375381551586e-01 -6.016088362418148261e-01 1.151660373070377164e+00
-9.823256849606530894e-01 -5.907191526810493531e-01 1.133839426606739975e+00
-9.703168117430557293e-01 -5.819366571993515036e-01 1.119978306886777686e+00
-9.703168117430557293e-01 -5.803756683120140369e-01 1.119978306886777686e+00
-9.737423308418352574e-01 -5.808580746488216651e-01 1.123932177451554937e+00
-9.788839852664784624e-01 -5.823504099531204847e-01 1.129866879754366948e+00
-9.788839852664784624e-01 -5.807756386985148955e-01 1.129866879754366948e+00
-9.771691283616400492e-01 -5.781861949987838756e-01 1.127887523620792587e+00
-9.737395541003045496e-01 -5.745904374837191853e-01 1.123928972425896733e+00
-9.703210061862941327e-01 -5.710122033239944939e-01 1.119983148280206731e+00
-9.480653347380380014e-01 -5.563900465851484567e-01 1.094294765964672012e+00
-9.480492128354564008e-01 -5.548554190644524597e-01 1.094276157422659157e+00
-9.531840198285927990e-01 -5.563271902913676792e-01 1.100202956147327882e+00
-9.651468259245700176e-01 -5.617566271338193529e-01 1.114010903360897586e+00
-1.182130015008171942e+00 -6.861483584017183945e-01 1.364461541535656686e+00
-1.311832079751782842e+00 -7.593214375962414886e-01 1.514168830034884561e+00
-1.323934692837120508e+00 -7.641968661397704476e-01 1.528138148043373779e+00
-1.334316074863426183e+00 -7.680426008890646195e-01 1.540120752615668609e+00
-1.329121189830663408e+00 -7.629141727196042666e-01 1.534124609425061125e+00
-1.322192310364786794e+00 -7.568099375619089519e-01 1.526127020803593304e+00
-1.313534895617508358e+00 -7.497413800448474719e-01 1.516134287921581780e+00
-1.278920193386339443e+00 -7.279264974410761813e-01 1.476180620079206696e+00
-1.230476869163122489e+00 -6.983743592021464108e-01 1.420265406010079667e+00
-1.252964798437983474e+00 -7.091220016038914942e-01 1.446221869558727002e+00
-1.313532745050805639e+00 -7.412876141811171049e-01 1.516131805651847353e+00
-1.351614222248985975e+00 -7.606043649107269156e-01 1.560086963225123968e+00
-1.363732907056467214e+00 -7.652301128270497799e-01 1.574074831855366119e+00
-1.372387791304125804e+00 -7.678788024198919260e-01 1.584064643933939642e+00
-1.381042761313044487e+00 -7.704996929176368692e-01 1.594054555001575002e+00
-1.382772063246058725e+00 -7.692399676690629962e-01 1.596050584161941677e+00
-1.382774317070895043e+00 -7.670166951002247435e-01 1.596053185616326253e+00
-1.387967775280860128e+00 -7.676645941922887184e-01 1.602047681911237476e+00
-1.382774964107577942e+00 -7.625679991699958471e-01 1.596053932451833912e+00
-1.374123790738898121e+00 -7.555864698061032225e-01 1.586068403617563183e+00
-1.370659355509343813e+00 -7.514764517801759691e-01 1.582069614504814314e+00
-1.374119523976272461e+00 -7.511629175437972705e-01 1.586063478750217026e+00
-1.367192702918795577e+00 -7.451769088051334311e-01 1.578068266025700161e+00
-1.349883930062947712e+00 -7.335712931722550012e-01 1.558089791075280228e+00
-1.415102187103157494e+00 -1.260496329631799473e+00 1.636000192807929965e+00
-1.404732271904005181e+00 -1.248995877425104206e+00 1.624011529784276542e+00
-1.392633170615647176e+00 -1.235994151374669947e+00 1.610023754045566857e+00
-1.392634837760077016e+00 -1.233751630221407991e+00 1.610025681431895173e+00
-1.394363099693794128e+00 -1.233035932264117784e+00 1.612023725730428847e+00
-1.396090717104789380e+00 -1.232314095776918750e+00 1.614021024895990974e+00
-1.383991960983073533e+00 -1.219404581086942940e+00 1.600033648204571834e+00
-1.361524371335446126e+00 -1.197415015399654115e+00 1.574058859012356093e+00
-1.342511571068698339e+00 -1.178530659879890363e+00 1.552078153176622344e+00
-1.345963894255109761e+00 -1.179392501200494880e+00 1.556069385364713398e+00
-1.359791338381171277e+00 -1.189317634306134019e+00 1.572055298935086887e+00
-1.363250197865624402e+00 -1.190146212768969480e+00 1.576054087739904519e+00
-1.380534831544026897e+00 -1.203011559375599226e+00 1.596036859505926442e+00
-1.399547374904628549e+00 -1.217324136485769426e+00 1.618017268332363923e+00
-1.413375708539675868e+00 -1.227074578372180147e+00 1.634004210264424328e+00
-1.420288364563884631e+00 -1.230787497391983454e+00 1.641995934601711449e+00
-1.420288512217526389e+00 -1.228499065238424226e+00 1.641996105304144526e+00
-1.413374969983593799e+00 -1.220241676938089714e+00 1.634003356419448716e+00
-1.383993698378344739e+00 -1.192645187685898556e+00 1.600035656807925477e+00
-1.370166331514822478e+00 -1.178521771507159865e+00 1.584049832560803894e+00
-1.366707257853622126e+00 -1.173344294177784297e+00 1.580050796146165171e+00
-1.373618358566612851e+00 -1.177064247317967993e+00 1.588040722387543680e+00
-1.387445530822918327e+00 -1.186677219617811918e+00 1.604026321649185682e+00
-1.385715021864103003e+00 -1.182964270827112641e+00 1.602025679564055949e+00
-1.370156473712581535e+00 -1.167474389434265403e+00 1.584038435951771628e+00
-1.363243351518235835e+00 -1.159387258094815909e+00 1.576046172675006796e+00
-1.380529768476028707e+00 -1.171864210861284894e+00 1.596031006091030546e+00
-1.373619796308130026e+00 -1.163785312206909062e+00 1.588042384561074938e+00
-1.364980776366547355e+00 -1.154266550154525284e+00 1.578054810222692117e+00
-1.375347809681206401e+00 -1.160817062659506460e+00 1.590040141498554327e+00
-1.363247435631233850e+00 -1.148407492265024255e+00 1.576050894319643625e+00
-1.342508018481216370e+00 -1.128773258094790233e+00 1.552074046028842913e+00
-1.361516626785722606e+00 -1.142561731062649466e+00 1.574049905535387373e+00
-1.364973396555508645e+00 -1.143263164858743020e+00 1.578046278420259574e+00
-1.354604067802634315e+00 -1.132395387480307880e+00 1.566058293387377454e+00
-1.356332182469697445e+00 -1.131654517889985501e+00 1.568056167430874615e+00
-1.347693336194832447e+00 -1.122275119405863997e+00 1.558068793868652158e+00
-1.363246565161332136e+00 -1.133030233894234629e+00 1.576049887969049212e+00
-1.394360280029348198e+00 -1.156642883220682094e+00 1.612020465915258383e+00
-1.403003659786146162e+00 -1.161551988670987523e+00 1.622013080637719318e+00
-1.397818980318905613e+00 -1.155007218935767632e+00 1.616019070674794778e+00
-1.394361938967594527e+00 -1.149903908173353084e+00 1.612022383814414761e+00
-1.383988714004257492e+00 -1.139119236835525850e+00 1.600029894371090888e+00
-1.342504994951820407e+00 -1.102812017976543046e+00 1.552070550525323833e+00
-1.318364756706538854e+00 -1.080857489434508434e+00 1.524162011634180747e+00
-1.326945642233836598e+00 -1.085754349829117782e+00 1.534082376753437282e+00
-1.345953457294287059e+00 -1.099138441999223170e+00 1.556057319190218280e+00
-1.356320637650581418e+00 -1.105419048041979879e+00 1.568042820460972431e+00
-1.340766233010881603e+00 -1.090581581848348192e+00 1.550060367164328490e+00
-1.323481373012820983e+00 -1.074389475307020003e+00 1.530077333750061053e+00
-1.306196572524598976e+00 -1.058253120367325772e+00 1.510094369135141390e+00
-1.314837917167997361e+00 -1.063135512999684673e+00 1.520084631062203817e+00
-1.332126303973385939e+00 -1.074967843428887404e+00 1.540071741819804663e+00
-1.342502332161029210e+00 -1.081177625218137317e+00 1.552067472071847254e+00
-1.366703206622826849e+00 -1.098465463738790948e+00 1.580046112516655610e+00
-1.385715740938844531e+00 -1.111513627027056250e+00 1.602026510886646271e+00
-1.385718151617318483e+00 -1.109282704999851488e+00 1.602029297872974212e+00
-1.389176440414630509e+00 -1.109812675280253513e+00 1.606027426906164512e+00
-1.383994630675153159e+00 -1.103442850390540242e+00 1.600036734636630875e+00
-1.375353250612257661e+00 -1.094337024033587236e+00 1.590046431761073853e+00
-1.364981692354798382e+00 -1.083885170792656227e+00 1.578055869197067862e+00
-1.356336369793473606e+00 -1.074834704702439581e+00 1.568061008397532596e+00
-1.345964698104898494e+00 -1.064446828417075608e+00 1.556070314695769063e+00
-1.330409304744121002e+00 -1.050001219047359102e+00 1.538086718338299796e+00
-1.356335454968923715e+00 -1.068277448759057613e+00 1.568059950768512012e+00
-1.370159923585365647e+00 -1.076958095833251638e+00 1.584042424351048695e+00
-1.358064040989441112e+00 -1.065262327021437860e+00 1.570058369743922322e+00
-1.347701151733547542e+00 -1.054962102818620018e+00 1.558077829416022242e+00
-1.366710973217070801e+00 -1.067640503357816684e+00 1.580055091479303453e+00
-1.383993698411297046e+00 -1.078911259940493306e+00 1.600035656846021448e+00
-1.356344607510160838e+00 -1.055171507026927857e+00 1.568070532025021446e+00
-1.345978871817682831e+00 -1.044938635931868642e+00 1.556086700930670919e+00
-1.339065406572160111e+00 -1.037413746638162326e+00 1.548094041052306080e+00
-1.342518985212368010e+00 -1.037926089225005066e+00 1.552086724671022822e+00
-1.339057922836955461e+00 -1.033092607881148206e+00 1.548085389103104337e+00
-1.328690993215548621e+00 -1.022953482896288735e+00 1.536100177707051762e+00
-1.320048116619358058e+00 -1.014172330082516060e+00 1.526108144688766100e+00
-1.328682934008310390e+00 -1.018665372420425319e+00 1.536090860454406792e+00
-1.326953074526443954e+00 -1.015200970327150953e+00 1.534090969229832124e+00
-1.313126089673031682e+00 -1.002506588257241482e+00 1.518105586624748371e+00
-1.323497418099997436e+00 -1.008291985435294080e+00 1.530095883481630503e+00
-1.337323998212667897e+00 -1.016670737267403757e+00 1.546080798165784254e+00
-1.325226089624850223e+00 -1.005338189407517957e+00 1.532094401308636611e+00
-1.307941521625555215e+00 -9.901183018785271184e-01 1.512111705474256551e+00
-1.276841459334301598e+00 -9.645179796047840259e-01 1.476156911277390238e+00
-1.235386941203432398e+00 -9.312128764520344326e-01 1.428231326628486064e+00
-1.273387794856881694e+00 -9.578053954779238710e-01 1.472164128422238427e+00
-1.275119057406423950e+00 -9.570529574617436808e-01 1.474165641733902854e+00
-1.285490932677048947e+00 -9.627663127981602731e-01 1.486156570796953957e+00
-1.290681547004223440e+00 -9.645740949218652993e-01 1.492157442053773098e+00
-1.287227708655017011e+00 -9.599187590569691064e-01 1.488164458185381012e+00
-1.288956174516043607e+00 -9.591307806785471790e-01 1.490162738244356966e+00
-1.282046796173096581e+00 -9.519236066942525776e-01 1.482174803235660532e+00
-1.257871316294797648e+00 -9.319463884372299889e-01 1.454225521478781813e+00
-1.352907567247561893e+00 -1.000177968885829882e+00 1.564096968431136103e+00
-1.340808688916782954e+00 -9.890730144641471933e-01 1.550109450453771132e+00
-1.301067886938306328e+00 -9.576610007404476876e-01 1.504165093719913582e+00
-1.342537165842534908e+00 -9.860215049872792514e-01 1.552107743304680154e+00
-1.352905915651228197e+00 -9.914568111198657219e-01 1.564095059019967815e+00
-1.361542809964848333e+00 -9.955923284719517818e-01 1.574080175919030600e+00
-1.371911538345067516e+00 -1.000963579465062425e+00 1.586067466860850539e+00
-1.373639654398941090e+00 -1.000011041067279338e+00 1.588065342507639865e+00
-1.377098907895464075e+00 -1.000310413869304416e+00 1.592064586829965656e+00
-1.373642645212938218e+00 -9.955864223740803487e-01 1.588068800188873420e+00
-1.373641346833539112e+00 -9.933720854245627896e-01 1.588067299131941557e+00
-1.373638309386200795e+00 -9.911564978249769453e-01 1.588063787537884020e+00
-1.366727036738798029e+00 -9.839673752791785466e-01 1.580073662523064248e+00
-1.354633721433498472e+00 -9.730780932760448865e-01 1.566092575961634870e+00
-1.339085057914839005e+00 -9.597512611332601473e-01 1.548116759977274270e+00
-1.328721085447438277e+00 -9.501821632785560912e-01 1.536134967348126601e+00
-1.307990113192200932e+00 -9.332496212294486559e-01 1.512167882203488967e+00
-1.295914523049128908e+00 -9.225455479035790107e-01 1.498207287709053759e+00
-1.257898187989732186e+00 -8.934552934253860990e-01 1.454256587855821348e+00
-1.204372198487094536e+00 -8.534964040156917120e-01 1.392375170425599329e+00
-1.175038682165558512e+00 -8.308153876042603247e-01 1.358462680716282511e+00
-1.197479319264483699e+00 -8.447525820129981877e-01 1.384406310056386369e+00
-1.200936908755533938e+00 -8.452566006793198472e-01 1.388403630621333429e+00
-1.202666679109461789e+00 -8.445361681374345952e-01 1.390403418805063351e+00
-1.209573561298109334e+00 -8.474372886912869829e-01 1.398388468008796348e+00
-1.207848732867782715e+00 -8.442826110325022393e-01 1.396394393184877458e+00
-1.216480187836227023e+00 -8.483558152592681756e-01 1.406373221654851680e+00
-1.240655613225755349e+00 -8.632162983946100043e-01 1.434322440417241440e+00
-1.256196238914229824e+00 -8.720049139100325419e-01 1.452288963862976567e+00
-1.251015208642533016e+00 -8.663926303759350578e-01 1.446299172736449368e+00
-1.257924569659943703e+00 -8.691507821991261151e-01 1.454287087715086413e+00
-1.252747336535576572e+00 -8.635550279767428838e-01 1.448301686472074579e+00
-1.251020014097767863e+00 -8.603485226754261639e-01 1.446304728325128686e+00
-1.247567340607320219e+00 -8.559638097394239864e-01 1.442313091150404070e+00
-1.247563431065199513e+00 -8.539508851811981049e-01 1.442308571327227007e+00
-1.247563431065199513e+00 -8.519406429844437190e-01 1.442308571327227007e+00
-1.240657383800340519e+00 -8.452255021240051569e-01 1.434324487379212920e+00
-1.221663232952160838e+00 -8.303168050902692832e-01 1.412365342143590663e+00
-1.188869011836083178e+00 -8.061121874558502265e-01 1.374451930265740307e+00
-1.162995176145500853e+00 -7.866944684362707774e-01 1.344539178689031944e+00
-1.073417232654196862e+00 -7.243708831120324598e-01 1.240978083130900300e+00
-1.011564503070372156e+00 -6.810010249721294429e-01 1.169470118231219491e+00
-1.044205553708446921e+00 -7.012929255422593044e-01 1.207206449659453673e+00
-1.057961050376383438e+00 -7.088264467540538183e-01 1.223109184745306832e+00
-1.073434306023217433e+00 -7.174637570724838875e-01 1.240997821659512557e+00
-1.069993273198748263e+00 -7.134397167426929087e-01 1.237019642263285091e+00
-1.063118418268654164e+00 -7.071427282259316049e-01 1.229071619785711000e+00
-1.049359936340479527e+00 -6.963002808305663871e-01 1.213165433439326923e+00
-1.040770735334633601e+00 -6.889239070476942395e-01 1.203235454792063619e+00
-1.032182223889430261e+00 -6.815756687534757496e-01 1.193306273346129487e+00
-1.039054333946764386e+00 -6.844392301776693888e-01 1.201251122475230693e+00
-1.064834472532754983e+00 -6.997051536115711512e-01 1.231055550792619302e+00
-1.106144394094200401e+00 -7.250676282181638399e-01 1.278813967290973963e+00
-1.125102781222276915e+00 -7.356817621028459708e-01 1.300731766075776230e+00
-1.111323078240833873e+00 -7.248807819669581542e-01 1.284801046061396335e+00
-1.180281851470193821e+00 -7.679585726463509232e-01 1.364524310803129969e+00
-1.140614626808305276e+00 -7.403109059216349541e-01 1.318665016833800330e+00
-1.083767001929180074e+00 -7.016678937354225987e-01 1.252943455443730869e+00
-1.070006321999053878e+00 -6.910346197482313269e-01 1.237034727986429772e+00
-1.095818900226072090e+00 -7.059392437172460344e-01 1.266876659785517001e+00
-1.107864746219086927e+00 -7.119141765374649156e-01 1.280802867056420213e+00
-1.100975956524919086e+00 -7.057133977545756442e-01 1.272838734592641963e+00
-1.114756384514484999e+00 -7.127502539147475558e-01 1.288770292789196414e+00
-1.114758755069984897e+00 -7.109555201754754750e-01 1.288773033389338574e+00
-1.114758755069984897e+00 -7.091592707561337194e-01 1.288773033389338574e+00
-1.118204119999233859e+00 -7.095492555644909993e-01 1.292756221133598560e+00
-1.118204752555731263e+00 -7.077478548746330977e-01 1.292756952432412954e+00
-1.137161017206141711e+00 -7.179135392333415577e-01 1.314672297419954061e+00
-1.130263311524651648e+00 -7.117376408901188167e-01 1.306697857179740296e+00
-1.118204752555731263e+00 -7.023424486510487785e-01 1.292756952432412954e+00
-1.133714192291860323e+00 -7.102571076414150308e-01 1.310687421786426166e+00
-1.130263311524651648e+00 -7.062739435444935765e-01 1.306697857179740296e+00
-1.107864746219086927e+00 -6.904924861702392835e-01 1.280802867056420213e+00
-1.097532037555794204e+00 -6.822839868795590457e-01 1.268857218523447683e+00
-1.107864746219086927e+00 -6.869222044423682894e-01 1.280802867056420213e+00
-1.094090736410687326e+00 -6.766187993534592549e-01 1.264878728921625894e+00
-1.085491192761660617e+00 -6.695514919080598482e-01 1.254936793140529971e+00
-1.075165486982873064e+00 -6.614499499335038113e-01 1.242999240645076942e+00
-1.056246346237306399e+00 -6.481087849232205489e-01 1.221126814618467282e+00
-1.042492907776845890e+00 -6.379899218633079405e-01 1.205226459027083363e+00
-1.027032502535216940e+00 -6.268734941809588346e-01 1.187352678471368606e+00
-1.039055918802185952e+00 -6.325380028654983278e-01 1.201252954727204392e+00
-1.042501189256742622e+00 -6.329555351066398217e-01 1.205236033249235783e+00
-9.961609937867058617e-01 -6.032148949937818916e-01 1.151662115114791662e+00
-9.790194974455646015e-01 -5.912575127045640588e-01 1.131844824480444656e+00
-9.790342800332054729e-01 -5.896888884580259171e-01 1.131861914635806654e+00
-9.687570754322584188e-01 -5.819377626324474528e-01 1.119980434371052880e+00
-9.670460082035201577e-01 -5.793516802819891343e-01 1.118002268877680505e+00
-9.670441837597238965e-01 -5.777923554574098119e-01 1.118000159637493107e+00
-9.584940206027587895e-01 -5.711393246120225475e-01 1.108115312662612206e+00
-9.619219918861798835e-01 -5.716319769531360562e-01 1.112078391606117433e+00
-9.687520289536512008e-01 -5.741298125797390517e-01 1.119974600135158482e+00
-9.687594229006731839e-01 -5.725731989591065219e-01 1.119983148280206731e+00
-9.636282683843441221e-01 -5.679877663206444049e-01 1.114051018533996684e+00
-9.499545593619996842e-01 -5.583974290113457029e-01 1.098242838177248881e+00
-9.465206157429336686e-01 -5.548537443672758585e-01 1.094272854614164903e+00
-9.516465887399601087e-01 -5.563251867990849364e-01 1.100198994003879660e+00
