-1.079225463599195800e+00 -8.109813115258417415e-01 1.052573935227136381e+00
-1.064411539097027903e+00 -7.984025188975345522e-01 1.038125841353032319e+00
-1.056944638139299508e+00 -7.913649292148198233e-01 1.030843335898781632e+00
-1.056937840532527817e+00 -7.899230933912592123e-01 1.030836706159259153e+00
-1.056925750210908399e+00 -7.884773276293753907e-01 1.030824914408754234e+00
-1.056946940254205991e+00 -7.870563769875184024e-01 1.030845581162841862e+00
-1.059292053972894498e+00 -7.873627213227969435e-01 1.033132782177542897e+00
-1.057070551790141311e+00 -7.842745710955022487e-01 1.030966140105535001e+00
-1.057050875429034198e+00 -7.828230726585431176e-01 1.030946949653178235e+00
-1.057098640633472808e+00 -7.814214814246666085e-01 1.030993535293434737e+00
-1.059578315356697553e+00 -7.818141546270834796e-01 1.033411974321738924e+00
-1.059578315356697553e+00 -7.803738190437615740e-01 1.033411974321738924e+00
-1.057001888271547951e+00 -7.770394608146083959e-01 1.030899172236067418e+00
-1.055516889439069184e+00 -7.745129709748530544e-01 1.029450845526190594e+00
-1.056929690383614728e+00 -7.741129152335392005e-01 1.030828757278692942e+00
-1.056946215775214082e+00 -7.726882610614635993e-01 1.030844874574895931e+00
-1.062981187673039729e+00 -7.756552101336401384e-01 1.036730812531080792e+00
-1.075575686326224689e+00 -7.833833086024898362e-01 1.049014289391777766e+00
-1.079228104508939579e+00 -7.845764593295099232e-01 1.052576510919478014e+00
-1.079220798975556450e+00 -7.831041118055339645e-01 1.052569385796617851e+00
-1.081503219417609962e+00 -7.832901423921715400e-01 1.054795441748377138e+00
-1.081542862430945107e+00 -7.818486612189723406e-01 1.054834105775457553e+00
-1.082886118630763450e+00 -7.813476837753321469e-01 1.056144190194282961e+00
-1.085198790637410982e+00 -7.815412107551668042e-01 1.058399750646691562e+00
-1.077759948130459167e+00 -8.109828764438042903e-01 1.052575966336651181e+00
-1.076403417970867249e+00 -8.084969279099857298e-01 1.051251134173353696e+00
-1.055505193145332088e+00 -7.913633182941213207e-01 1.030841237490316420e+00
-1.055500553397435981e+00 -7.899230933912592123e-01 1.030836706159259153e+00
-1.055488479516957234e+00 -7.884773276293753907e-01 1.030824914408754234e+00
-1.055509640744769495e+00 -7.870563769875184024e-01 1.030845581162841862e+00
-1.062946730473176116e+00 -7.911550709669521453e-01 1.038108888656490203e+00
-1.058171390386432931e+00 -7.861603863813152460e-01 1.033445133786856207e+00
-1.063605919646530618e+00 -7.887501492863598918e-01 1.038752674577785529e+00
-1.059670716217578246e+00 -7.843894537428618419e-01 1.034909424919876031e+00
-1.055586486404324065e+00 -7.799293619339305872e-01 1.030920631172359103e+00
-1.055609466274876285e+00 -7.785094463020049149e-01 1.030943074073020549e+00
-1.054153090446335650e+00 -7.760004605318048254e-01 1.029520729331285800e+00
-1.055488071242440817e+00 -7.755464592198080265e-01 1.030824515674375386e+00
-1.055500120734997882e+00 -7.741185672177063326e-01 1.030836283606830106e+00
-1.057859835539509019e+00 -7.744092573833156745e-01 1.033140859031947523e+00
-1.065242390134730321e+00 -7.783636703278035140e-01 1.040350905713100849e+00
-1.076410032703889907e+00 -7.850585647647857490e-01 1.051257594340124113e+00
-1.077755285554971465e+00 -7.845726591933770422e-01 1.052571412711414078e+00
-1.077757257289509552e+00 -7.831070524937805422e-01 1.052573338372494893e+00
-1.080047715343549042e+00 -7.833011578242501383e-01 1.054810275367385586e+00
-1.081415204005492736e+00 -7.828209033561264185e-01 1.056145809966065441e+00
-1.083660633151340091e+00 -7.829712594697397776e-01 1.058338770241802784e+00
-1.083781953962687616e+00 -7.815836738448745935e-01 1.058457256153681803e+00
-1.076290834245875461e+00 -8.109817342345698732e-01 1.052574483861467458e+00
-1.076292350123828623e+00 -8.095158307194137981e-01 1.052575966336652957e+00
-1.060109562071719802e+00 -7.958992215220177524e-01 1.036749770257112013e+00
-1.056375859643380322e+00 -7.916561686019927269e-01 1.033098340939537785e+00
-1.054063266262344145e+00 -7.884863471319079054e-01 1.030836706159259153e+00
-1.054071229499418783e+00 -7.870555468748149375e-01 1.030844493924319538e+00
-1.063841490967878833e+00 -7.929007464028553498e-01 1.040399465122751721e+00
-1.052705394657517113e+00 -7.831659123772001241e-01 1.029508755610834658e+00
-1.054231694528079633e+00 -7.828644356432173934e-01 1.031001423064052291e+00
-1.058239736299044775e+00 -7.843983379507726283e-01 1.034921146584995233e+00
-1.056732137988790843e+00 -7.818404777766086999e-01 1.033446768598307308e+00
-1.054162402418634681e+00 -7.785023356877565082e-01 1.030933657824384619e+00
-1.052706611181232432e+00 -7.759923320976940264e-01 1.029509945328131559e+00
-1.052664477216150640e+00 -7.745264338265636095e-01 1.029468739796004062e+00
-1.054066859704153369e+00 -7.741215236125906785e-01 1.030840220418637099e+00
-1.057800849793352649e+00 -7.754219776484380100e-01 1.034491931058388658e+00
-1.068947001545506703e+00 -7.821356417993722276e-01 1.045392474437804697e+00
-1.076292906977060371e+00 -7.860435058129234820e-01 1.052576510919478014e+00
-1.076285621312677687e+00 -7.845711483581857548e-01 1.052569385796617851e+00
-1.078547661277307723e+00 -7.847499693384162311e-01 1.054781581118259481e+00
-1.078616406431662345e+00 -7.833297746882087464e-01 1.054848811455135316e+00
-1.079975189722258255e+00 -7.828445060273874212e-01 1.056177653600093969e+00
-1.082296283422174765e+00 -7.830517740134067539e-01 1.058447601392500381e+00
-1.078960654678152276e+00 -7.791677317540597336e-01 1.055185474101364429e+00
-1.073444308174579254e+00 -8.099412960399791084e-01 1.051224097472438945e+00
-1.073444005598314988e+00 -8.084759066173280440e-01 1.051223801159478999e+00
-1.073488618314710541e+00 -8.070442851511517857e-01 1.051267490396239124e+00
-1.060062605761398880e+00 -7.955037680389734911e-01 1.038119395221176466e+00
-1.052622893211429655e+00 -7.884840355772410048e-01 1.030833684121645444e+00
-1.054982887884403642e+00 -7.888118641392748431e-01 1.033144827095010987e+00
-1.058686265880603328e+00 -7.901358658921238121e-01 1.036771545465034805e+00
-1.051219380748732224e+00 -7.831282329789761576e-01 1.029459224253858274e+00
-1.055285198413237202e+00 -7.847167744412013590e-01 1.033440879820251901e+00
-1.052784102986500603e+00 -7.814199819151335102e-01 1.030991556867359549e+00
-1.052818334844140225e+00 -7.800083814094376233e-01 1.031025080128303850e+00
-1.052744332205222122e+00 -7.785166467906495802e-01 1.030952609338049664e+00
-1.051275332356256920e+00 -7.759954016204577698e-01 1.029514017667614745e+00
-1.051222347300801774e+00 -7.745214604578961604e-01 1.029462129398539094e+00
-1.054991701771412549e+00 -7.758586768394977184e-01 1.033153458535268854e+00
-1.062379859645356861e+00 -7.798419931607347699e-01 1.040388682136415222e+00
-1.073469006842156181e+00 -7.865168078878326252e-01 1.051248284879586770e+00
-1.074818248723417691e+00 -7.860383430535231586e-01 1.052569597562601489e+00
-1.074820501500393988e+00 -7.845729506364652606e-01 1.052571803707275766e+00
-1.077114158658208920e+00 -7.847770515926149049e-01 1.054817982346701877e+00
-1.078471821437432254e+00 -7.842942105325327873e-01 1.056147541615769070e+00
-1.080742516520860397e+00 -7.844703991359411877e-01 1.058371233493898389e+00
-1.080827238431425918e+00 -7.830566569733464766e-01 1.058454201667740513e+00
-1.078759159746245144e+00 -7.800859232275491051e-01 1.056428932044737534e+00
-1.072009722851629210e+00 -8.099648148657030422e-01 1.051254622593785548e+00
-1.071983183183055299e+00 -8.084795948192688986e-01 1.051228596757754818e+00
-1.071978292904460561e+00 -8.070107454962381910e-01 1.051223801159478999e+00
-1.066020236972711421e+00 -8.010683615815069603e-01 1.045381098704073697e+00
-1.053513879267527376e+00 -7.902304473444751176e-01 1.033116875657277944e+00
-1.053503660336410297e+00 -7.887828719068196159e-01 1.033106854574123767e+00
-1.057240703847914132e+00 -7.901358658921238121e-01 1.036771545465034805e+00
-1.064617944566634167e+00 -7.941941946424296850e-01 1.044005955976640809e+00
-1.053822464490678845e+00 -7.847005298858783506e-01 1.033419486384948627e+00
-1.057843570452332127e+00 -7.862488961638947060e-01 1.037362740014106777e+00
-1.053860220319586594e+00 -7.818478484327237021e-01 1.033456511226069852e+00
-1.051340548342345693e+00 -7.785415763959447899e-01 1.030985622429978932e+00
-1.049816926594782984e+00 -7.759784285005815185e-01 1.029491499409388444e+00
-1.051192275634163620e+00 -7.755582747700009438e-01 1.030840220418637099e+00
-1.057183257486771666e+00 -7.785334167620894252e-01 1.036715211318604224e+00
-1.069720993674367682e+00 -7.863044104744423279e-01 1.049010205331355250e+00
-1.073354815122261385e+00 -7.875084287639662062e-01 1.052573672633328128e+00
-1.073354474262059322e+00 -7.860411366170244607e-01 1.052573338372494893e+00
-1.075623784614971434e+00 -7.862328588854483602e-01 1.054798712776985115e+00
-1.076994291401217385e+00 -7.857626211244719272e-01 1.056142685283600891e+00
-1.077038641789649587e+00 -7.843229011395171923e-01 1.056186177007471638e+00
-1.079354559240833566e+00 -7.845341595898531750e-01 1.058457256153681803e+00
-1.082525147263437626e+00 -7.853591406809182773e-01 1.061566458658148582e+00
-1.080374910126141286e+00 -7.823225316990634060e-01 1.059457852101630904e+00
-1.071887781474992307e+00 -8.109815337740557961e-01 1.052574223683447219e+00
-1.071889578190777348e+00 -8.095158473999110038e-01 1.052575988025531428e+00
-1.070508021435764068e+00 -8.070073088432256903e-01 1.051219324525848986e+00
-1.070503982500328188e+00 -8.055391147196974133e-01 1.051215358365021002e+00
-1.057179986291953089e+00 -7.940660824986461863e-01 1.038131437447392003e+00
-1.053474334325956718e+00 -7.898408618692155381e-01 1.034492554899461236e+00
-1.057179167760684324e+00 -7.911716430950314072e-01 1.038130633664636315e+00
-1.064576478765942191e+00 -7.952506053348820103e-01 1.045394657962021245e+00
-1.057157023755999958e+00 -7.882613069912134396e-01 1.038108888656490203e+00
-1.049815017116404459e+00 -7.813499607821450255e-01 1.030899172236067418e+00
-1.048407326312219334e+00 -7.788673465175731669e-01 1.029516845577429063e+00
-1.048335096853300508e+00 -7.773788790465990806e-01 1.029445917568021285e+00
-1.052035615420335191e+00 -7.786830765760893724e-01 1.033079759211931847e+00
-1.053469588705909565e+00 -7.783026225207094750e-01 1.034487894787252227e+00
-1.066895619198682477e+00 -7.867615540513985817e-01 1.047672011508532952e+00
-1.070496520866935919e+00 -7.879518302491492765e-01 1.051208031177314428e+00
-1.071883227840394470e+00 -7.875054955203033558e-01 1.052569752097442857e+00
-1.074143228312581799e+00 -7.876957726506098600e-01 1.054789031282866052e+00
-1.075529632860366291e+00 -7.872404296358580522e-01 1.056150455226506191e+00
-1.075562527990300721e+00 -7.857924346741144150e-01 1.056182757643281622e+00
-1.077854469416339223e+00 -7.859916885839192124e-01 1.058433402261994116e+00
-1.078911963601576485e+00 -7.852861762023641834e-01 1.059471842237067030e+00
-1.081054359087969985e+00 -7.853659297957358287e-01 1.061575635474462320e+00
-1.081016811053525428e+00 -7.838591140688744296e-01 1.061538763990441891e+00
-1.072662519333941189e+00 -8.126803909452549046e-01 1.054779173110349966e+00
-1.070422367807351671e+00 -8.095161405661712717e-01 1.052576369216050578e+00
-1.070419625505180328e+00 -8.080470241490174121e-01 1.052573672633328128e+00
-1.070422709347598866e+00 -8.065823053509203477e-01 1.052576705062165274e+00
-1.066799894387530534e+00 -8.023903690948980261e-01 1.049014289391777544e+00
-1.054340573077065413e+00 -7.915741219123059169e-01 1.036762688918658748e+00
-1.061706646743189042e+00 -7.956492957685611378e-01 1.044005955976641031e+00
-1.065414556634660892e+00 -7.969678426355901735e-01 1.047652047882343895e+00
-1.063117197067840358e+00 -7.937923019417646442e-01 1.045392989715817400e+00
-1.065385259819614738e+00 -7.940256420261585513e-01 1.047623239501523251e+00
-1.059423926669150973e+00 -7.881307213687319679e-01 1.041761293234410246e+00
-1.052022649052744896e+00 -7.811829055500372210e-01 1.034483409143670762e+00
-1.054292290513866748e+00 -7.814232958146584140e-01 1.036715211318604224e+00
-1.065434858735904822e+00 -7.882217648050200420e-01 1.047672011508532508e+00
-1.069030830161037615e+00 -7.894169693905571661e-01 1.051208031177314428e+00
-1.070415454630651242e+00 -7.889723970600012182e-01 1.052569571295295159e+00
-1.072673403470152609e+00 -7.891665347082964521e-01 1.054789875787087716e+00
-1.074068689202678062e+00 -7.887210036677035907e-01 1.056161899424232997e+00
-1.076286133077207108e+00 -7.888742567697029084e-01 1.058342374246683759e+00
-1.076348102125288531e+00 -7.874445098942522980e-01 1.058403310151607712e+00
-1.074325608158429590e+00 -7.844924796135052114e-01 1.056414535047105474e+00
-1.079645693156705555e+00 -7.868976171934533026e-01 1.061645924001427099e+00
-1.080996378907022271e+00 -7.864005235290107976e-01 1.062974091223803264e+00
-1.081126490378665261e+00 -7.850134600845499744e-01 1.063102033487095088e+00
-1.071193456566832181e+00 -8.126816102426192012e-01 1.054780755638340173e+00
-1.071194294891463672e+00 -8.112121264161448186e-01 1.054781581118259481e+00
-1.068953679185981498e+00 -8.080482702824907104e-01 1.052575295864708549e+00
-1.068950198310196331e+00 -8.065785989905054354e-01 1.052571868322495385e+00
-1.068949122134016383e+00 -8.051107484237692846e-01 1.052570808635360899e+00
-1.063947252322981152e+00 -7.998832678537899366e-01 1.047645576888896146e+00
-1.056609006675565565e+00 -7.929162186912326327e-01 1.040419766983514460e+00
-1.057981053544679195e+00 -7.924938646465937708e-01 1.041770791510879812e+00
-1.054285070054177931e+00 -7.882784288361196490e-01 1.038131437447392003e+00
-1.052895023392985907e+00 -7.857940991163051558e-01 1.036762688918658748e+00
-1.050590707454649664e+00 -7.826325043205527576e-01 1.034493679439775660e+00
-1.060298457570275854e+00 -7.884090799081958645e-01 1.044052688542880025e+00
-1.065337716159892256e+00 -7.906940532666190125e-01 1.049014736201431042e+00
-1.068951220959741377e+00 -7.919089564707393336e-01 1.052572875303123601e+00
-1.068952813103535515e+00 -7.904430923740962678e-01 1.052574443052276543e+00
-1.071209474809634798e+00 -7.906416527306907582e-01 1.054796528451498849e+00
-1.072603007262325603e+00 -7.901981423676939231e-01 1.056168709362841129e+00
-1.074849975104320565e+00 -7.903783707456153440e-01 1.058381249426211701e+00
-1.074921910623333643e+00 -7.889560320270536664e-01 1.058452082757611157e+00
-1.071630797472838514e+00 -7.850697482888676637e-01 1.055211395658105733e+00
-1.078274379643610281e+00 -7.884569567217061259e-01 1.061753185639432884e+00
-1.081749842352518920e+00 -7.895136819211951984e-01 1.065175397714966499e+00
-1.002712077837641269e+00 -7.304519407157440414e-01 9.873486405891713780e-01
-1.004966357415824962e+00 -7.307149020380843130e-01 9.895683803591635019e-01
-1.067485217220806026e+00 -8.109817027921313315e-01 1.052574443052276543e+00
-1.069724094545710269e+00 -8.112124850580326729e-01 1.054782047443706627e+00
-1.069722060116525153e+00 -8.097408245812820482e-01 1.054780041431696347e+00
-1.067486082114182722e+00 -8.065812254925806002e-01 1.052575295864708549e+00
-1.067487170670624597e+00 -8.051150017084356403e-01 1.052576369216050578e+00
-1.067485548654155236e+00 -8.036467343022565268e-01 1.052574769856120973e+00
-1.066137476508981941e+00 -8.011666591115155223e-01 1.051245527760296561e+00
-1.062513337810350178e+00 -7.969830293267505805e-01 1.047672011508532508e+00
-1.058842743499720518e+00 -7.927745786895258329e-01 1.044052688542880025e+00
-1.058842743499720518e+00 -7.913194124290825471e-01 1.044052688542880025e+00
-1.063870488492725697e+00 -7.936147898949930113e-01 1.049010205331355250e+00
-1.066095986320096722e+00 -7.938098087071320252e-01 1.051204617111836770e+00
-1.067483102388038896e+00 -7.933756077890459224e-01 1.052572357759772093e+00
-1.067488383812781771e+00 -7.919124851004510912e-01 1.052577565412878169e+00
-1.069744627400061932e+00 -7.921161227263873172e-01 1.054802293492443255e+00
-1.071113000185450748e+00 -7.916573354295940446e-01 1.056151552666465543e+00
-1.073316255571756361e+00 -7.918106995995035646e-01 1.058324032691229322e+00
-1.073445117226291323e+00 -7.904305295948742538e-01 1.058451094389194491e+00
-1.076562918507870226e+00 -7.912468012210479573e-01 1.061525345811663357e+00
-1.080188202125850205e+00 -7.924267926502075454e-01 1.065099990990391543e+00
-1.003562515804250266e+00 -7.348349428402091155e-01 9.895446223517141426e-01
-1.004999888416847176e+00 -7.345062548856537976e-01 9.909619175542666580e-01
-1.007262563216671847e+00 -7.347756557774683950e-01 9.931929870143521022e-01
-1.007273857893212998e+00 -7.333995997876696649e-01 9.932041239253629472e-01
-1.066014195010986709e+00 -8.109790961855217750e-01 1.052571059933408382e+00
-1.066016858537436551e+00 -8.095140799337202653e-01 1.052573689871050489e+00
-1.068250777066318324e+00 -8.097403607424734640e-01 1.054779437228594574e+00
-1.066020783576570707e+00 -8.065829646317672630e-01 1.052577565412878169e+00
-1.066012802951249672e+00 -8.051098892835133469e-01 1.052569685428453417e+00
-1.066019844028476493e+00 -8.036481604215247598e-01 1.052576637713098950e+00
-1.064647885007843131e+00 -8.011487130782590782e-01 1.051221979991568078e+00
-1.064680944511994909e+00 -7.997083863127726344e-01 1.051254622593785548e+00
-1.064687672256391160e+00 -7.982482263515754406e-01 1.051261265496931774e+00
-1.064630300374401983e+00 -7.967400774731236979e-01 1.051204617111836770e+00
-1.066013136618098489e+00 -7.963079167098172650e-01 1.052570014887545646e+00
-1.066013940503432789e+00 -7.948414786734661064e-01 1.052570808635360899e+00
-1.066020783576570707e+00 -7.933795330535826640e-01 1.052577565412878169e+00
-1.068294993526829773e+00 -7.936019223807518896e-01 1.054823096090666823e+00
-1.069668681598802129e+00 -7.931503228224159319e-01 1.056179461059070235e+00
-1.071920933052834313e+00 -7.933451806315640065e-01 1.058403310151607712e+00
-1.069893121399472236e+00 -7.903719889879230465e-01 1.056401070527300812e+00
-1.075189027196333358e+00 -7.928046169962569278e-01 1.061630191493980080e+00
-9.999976741019479531e-01 -7.359851070218381697e-01 9.873870504600383846e-01
-1.005887270923236265e+00 -7.389354798820535475e-01 9.932023756196625142e-01
-1.005875340463711076e+00 -7.375424392896702264e-01 9.931905956110221867e-01
-1.007334027276694188e+00 -7.372257149128966791e-01 9.946308874308106285e-01
-1.007375124112067422e+00 -7.358694516323542878e-01 9.946714660082547343e-01
-1.007387773071407588e+00 -7.344923337243778327e-01 9.946839554559582242e-01
-1.064545391460000490e+00 -8.109781725818572262e-01 1.052569861186742006e+00
-1.064544902824751560e+00 -8.095107637942325907e-01 1.052569378048361814e+00
-1.064545179129367858e+00 -8.080439369816374562e-01 1.052569651244708249e+00
-1.064547924637970988e+00 -8.065789802561350585e-01 1.052572365867900706e+00
-1.064548563446273244e+00 -8.051124226772830017e-01 1.052572997489972906e+00
-1.064545663771367723e+00 -8.036431920780539029e-01 1.052570130434761220e+00
-1.064545054500259935e+00 -8.021756953783064636e-01 1.052569528017606837e+00
-1.064544919904811593e+00 -8.007085573900623032e-01 1.052569394936280656e+00
-1.064548240637886778e+00 -7.992440139724045212e-01 1.052572678312997168e+00
-1.064548240637886778e+00 -7.977769728307517738e-01 1.052572678312997168e+00
-1.064544935849570217e+00 -7.963074596209878120e-01 1.052569410701669872e+00
-1.064550848754544976e+00 -7.948448378927186475e-01 1.052575257089826133e+00
-1.066837535420204874e+00 -7.950819920897302939e-01 1.054836219830879607e+00
-1.070346529569438765e+00 -7.962221084063730858e-01 1.058305739791412847e+00
-1.070482686397231875e+00 -7.948481750369840171e-01 1.058440364932322408e+00
-1.071495413257856244e+00 -7.941235237571557803e-01 1.059441699191677522e+00
-1.075185117317045247e+00 -7.953763955351910164e-01 1.063089896178444294e+00
-1.000779002019634323e+00 -7.389547424127212993e-01 9.895208073652095315e-01
-1.004485413970637842e+00 -7.403072118944490354e-01 9.931855242895089031e-01
-1.005974927636240190e+00 -7.400186636709777943e-01 9.946582817734229698e-01
-1.008226783315899544e+00 -7.402857561107605289e-01 9.968848053572607615e-01
-1.008224527695110950e+00 -7.388946778223631773e-01 9.968825751109235966e-01
-1.008226783315899544e+00 -7.375069056749092855e-01 9.968848053572607615e-01
-1.008224527695110950e+00 -7.361158336033998273e-01 9.968825751109235966e-01
-1.063077320754671540e+00 -8.109778054858055585e-01 1.052569384732192193e+00
-1.063077589927816646e+00 -8.095109739042620767e-01 1.052569651244708249e+00
-1.063077541805113047e+00 -8.080439004036311657e-01 1.052569603597671266e+00
-1.063077320754671540e+00 -8.065766958323008495e-01 1.052569384732192193e+00
-1.063077801965728764e+00 -8.051100237209176669e-01 1.052569861186742006e+00
-1.063078073901683407e+00 -8.036431920780522375e-01 1.052570130434758999e+00
-1.063078798218546117e+00 -8.021767010416818167e-01 1.052570847592146919e+00
-1.063085583104148801e+00 -8.007147728192407499e-01 1.052577565412878169e+00
-1.065310768061996427e+00 -8.009206607456202942e-01 1.054780755638340173e+00
-1.063080041491427208e+00 -7.977765182717367898e-01 1.052572078575957804e+00
-1.063085583104148801e+00 -7.963136289598458095e-01 1.052577565412878169e+00
-1.065357092752972301e+00 -7.965449406748220662e-01 1.054826622435163230e+00
-1.068920579922929770e+00 -7.977341843864846904e-01 1.058354886489673019e+00
-1.069023179738095131e+00 -7.963355127293112456e-01 1.058456472161960482e+00
-1.072260684792810670e+00 -7.972674817507170442e-01 1.061661976255576345e+00
-1.075781212121082797e+00 -7.984005628091660478e-01 1.065147705102864384e+00
-1.000901888316821031e+00 -7.414469738339632965e-01 9.910085223293444434e-01
-1.004581144219193423e+00 -7.427861764924247323e-01 9.946514108058696069e-01
-1.006824399667253678e+00 -7.430554290090510827e-01 9.968724929046635097e-01
-1.006836248942230227e+00 -7.416747495887326957e-01 9.968842250560583373e-01
-1.006835981768930743e+00 -7.402851287380622924e-01 9.968839605236203827e-01
-1.008260709816308331e+00 -7.399412825808597827e-01 9.982946059159746310e-01
-1.004612655496246454e+00 -7.358776965385033231e-01 9.946826106112386379e-01
-1.003090864723748199e+00 -7.333787306092958147e-01 9.931758619055448545e-01
-1.063865748901639874e+00 -8.127012068847049298e-01 1.054806190151299061e+00
-1.061614074039711308e+00 -8.095140799337199322e-01 1.052573689871050044e+00
-1.061618496167300085e+00 -8.080504032824593619e-01 1.052578074341138370e+00
-1.063840100985311343e+00 -8.082712580177092709e-01 1.054780760644863813e+00
-1.061619020805415037e+00 -8.051167038355949712e-01 1.052578594511593968e+00
-1.061617483121084060e+00 -8.036484904152265685e-01 1.052577069921717401e+00
-1.063838266492704410e+00 -8.038595157525711965e-01 1.054778941774240808e+00
-1.063839725606115394e+00 -8.023905001152843441e-01 1.054780388462283502e+00
-1.061612448905467687e+00 -7.992435585774958495e-01 1.052572078575957804e+00
-1.063841398836259833e+00 -7.994515211572275071e-01 1.054782047443706627e+00
-1.065222666516558281e+00 -7.990174817240300875e-01 1.056151552666464877e+00
-1.067484050788747751e+00 -7.992385789815534824e-01 1.058393679674575649e+00
-1.067540293944570839e+00 -7.978054569474902769e-01 1.058449443880705276e+00
-1.070722969582833306e+00 -7.987043375111656518e-01 1.061605016816434155e+00
-9.942972464432046076e-01 -7.403206561139640263e-01 9.858301120056551792e-01
-1.001714513114562832e+00 -7.444590386972398388e-01 9.931842154787945409e-01
-1.006863441502278578e+00 -7.468942614574016758e-01 9.982892971506271973e-01
-1.005444637355849435e+00 -7.444523662602898773e-01 9.968825751109235966e-01
-1.006868795863747890e+00 -7.441154530354340269e-01 9.982946059159746310e-01
-1.001715833166439529e+00 -7.389229426126717737e-01 9.931855242895089031e-01
-1.005447745979582308e+00 -7.402863887348645200e-01 9.968856572625575119e-01
-1.005447268753847379e+00 -7.388966116195149203e-01 9.968851841007325687e-01
-1.001711806282154393e+00 -7.347671810012014193e-01 9.931815316969517804e-01
-9.994679112011107813e-01 -7.317400951567908374e-01 9.909567449473281053e-01
-1.067068951120460296e+00 -8.162766115075191786e-01 1.059446713502921300e+00
-1.065989465854291218e+00 -8.139757086355139393e-01 1.058374939166017770e+00
-1.063768952178535177e+00 -8.108080978676481809e-01 1.056170286960930182e+00
-1.063755644104961817e+00 -8.093259174571352244e-01 1.056157073948973180e+00
-1.063746216016132395e+00 -8.078467204767936227e-01 1.056147713206432082e+00
-1.062429621772593036e+00 -8.053766499791078504e-01 1.054840523598047364e+00
-1.062382273192031823e+00 -8.038706208357990768e-01 1.054793513235678715e+00
-1.062384286857315452e+00 -8.024020052570123296e-01 1.054795512517041400e+00
-1.062413925429422257e+00 -8.009542105315711202e-01 1.054824939376269644e+00
-1.063771914259408424e+00 -8.005059392915295780e-01 1.056173227883204557e+00
-1.066027380605200303e+00 -8.007280343690377222e-01 1.058412583086030256e+00
-1.066064506596540840e+00 -7.992806889314908458e-01 1.058449443880705276e+00
-1.069283983939028904e+00 -8.002148013881525968e-01 1.061645924001427099e+00
-9.966465501455287201e-01 -7.444763113071550809e-01 9.895273505680949322e-01
-1.000329724537327714e+00 -7.458433061548397358e-01 9.931842154787945409e-01
-1.005530569743740221e+00 -7.483295787080046502e-01 9.983479102480833367e-01
-1.005519690291992507e+00 -7.469300326812339241e-01 9.983371085099324027e-01
-1.005530569743740221e+00 -7.455466498173092260e-01 9.983479102480833367e-01
-1.005494944834900428e+00 -7.441288207228504703e-01 9.983125398134459205e-01
-1.004057132325810509e+00 -7.416753245197567068e-01 9.968849978202231066e-01
-1.001819545221878105e+00 -7.386361381508891322e-01 9.946633941450825356e-01
-1.004055026972078712e+00 -7.388949241948886693e-01 9.968829075053567967e-01
-1.004057393548505539e+00 -7.375072399363502562e-01 9.968852571769643012e-01
-1.001843603477215128e+00 -7.344947890319578621e-01 9.946872805486017821e-01
-1.061331889524529393e+00 -8.130134073699626374e-01 1.055211395658105733e+00
-1.062558320079207919e+00 -8.124804731162608151e-01 1.056430753627138230e+00
-1.064577915640956718e+00 -8.125495308281156515e-01 1.058438702575447588e+00
-1.064523813836719235e+00 -8.110330950529807126e-01 1.058384912765756081e+00
-1.064565736191713130e+00 -8.095898344726759621e-01 1.058426593362710610e+00
-1.064554973350453126e+00 -8.081064642360280548e-01 1.058415892588655538e+00
-1.064488251975250321e+00 -8.065807231020885038e-01 1.058349555982601498e+00
-1.064565736191713130e+00 -8.051642340655730257e-01 1.058426593362710610e+00
-1.064596601769167261e+00 -8.037123357564126547e-01 1.058457280944403500e+00
-1.064596364259271066e+00 -8.022369138714853243e-01 1.058457044804180569e+00
-1.062528464809858963e+00 -7.992062511599192787e-01 1.056401070527300812e+00
-1.067704692305726732e+00 -8.016201248533947332e-01 1.061547447729445759e+00
-9.930936975130321143e-01 -7.442269082987614803e-01 9.873667199818703111e-01
-1.000420641392381738e+00 -7.483314260369743343e-01 9.946514108058696069e-01
-1.004121650349069528e+00 -7.497084018532158556e-01 9.983310767662311180e-01
-1.006369860734302568e+00 -7.499924291383205377e-01 1.000566322160956423e+00
-1.006366751008139770e+00 -7.485955595438622545e-01 1.000563230367977452e+00
-1.006363623052258793e+00 -7.471986850327929641e-01 1.000560120450407542e+00
-1.006366751008139770e+00 -7.458064553726853063e-01 1.000563230367977452e+00
-1.004120482154730265e+00 -7.427503328200817379e-01 9.983299153086406807e-01
-1.004091497438003522e+00 -7.413374935558729728e-01 9.983010977411183040e-01
-1.002663424974153505e+00 -7.388937035683850185e-01 9.968812606924499775e-01
-1.002654028783262152e+00 -7.374973719676584105e-01 9.968719186875576455e-01
-1.004088744642291253e+00 -7.371612749659419705e-01 9.982983608202418147e-01
-1.063120726947577976e+00 -8.155142202944095642e-01 1.058457204733779022e+00
-1.063120726947577976e+00 -8.140389774935875566e-01 1.058457204733779022e+00
-1.063094933304481682e+00 -8.125440201124414230e-01 1.058431524237971155e+00
-1.063070092692550705e+00 -8.110498614142309659e-01 1.058406792592729184e+00
-1.063073507961036501e+00 -8.095772897535377099e-01 1.058410192879679856e+00
-1.063041783206448709e+00 -8.080779967015968568e-01 1.058378607289999662e+00
-1.061052978478879583e+00 -8.050938206105717754e-01 1.056398526722152731e+00
-1.064101775217598744e+00 -8.059305480835610158e-01 1.059433949503469030e+00
-1.064131181639466961e+00 -8.044761749895786851e-01 1.059463226930108304e+00
-1.066252897375578268e+00 -8.046005889655635235e-01 1.061575635474462320e+00
-1.067693162145692432e+00 -8.042058333170395423e-01 1.063009582329236480e+00
-9.916799493889466577e-01 -7.455751965411540061e-01 9.873298117651296835e-01
-9.975601473828574761e-01 -7.486118410700395298e-01 9.931842154787945409e-01
-1.002734625630441023e+00 -7.511035432327138883e-01 9.983359951808218336e-01
-1.004970462884395621e+00 -7.513837582547135963e-01 1.000562024633615321e+00
-1.004975537848514122e+00 -7.499929951931070260e-01 1.000567077335720478e+00
-1.004976849988008292e+00 -7.485994151482140424e-01 1.000568383719337984e+00
-1.004970216067309741e+00 -7.471999235298616426e-01 1.000561778899225818e+00
-1.004964942961464880e+00 -7.458014602063608445e-01 1.000556528924569699e+00
-1.004964942961464880e+00 -7.444069174610236095e-01 1.000556528924569699e+00
-1.004969939210665908e+00 -7.430160686504944101e-01 1.000561503257050955e+00
-1.001277959089638347e+00 -7.388970077220166077e-01 9.968857185039349256e-01
-1.001269292229363117e+00 -7.375011975143478393e-01 9.968770896620090527e-01
-1.004961700825302451e+00 -7.388263629304635538e-01 1.000553301010473906e+00
-1.061644941866788150e+00 -8.155142303482034727e-01 1.058457217782614146e+00
-1.059604907868643808e+00 -8.124747477868051737e-01 1.056423309246243392e+00
-1.061644673925935756e+00 -8.125635396331263305e-01 1.058456950646288197e+00
-1.061644928778654240e+00 -8.110884918919435416e-01 1.058457204733779022e+00
-1.061643768191626425e+00 -8.096123640243642061e-01 1.058456047631561425e+00
-1.059580050707763288e+00 -8.065661940937660646e-01 1.056398526722152731e+00
-1.061645005218800009e+00 -8.066628215704965132e-01 1.058457280944403500e+00
-1.059620221554838926e+00 -8.036519140602322864e-01 1.056438576951146180e+00
-1.062645582483052964e+00 -8.044698171048900726e-01 1.059454853848048161e+00
-1.066279699140790349e+00 -8.057393213343604366e-01 1.063078058607901832e+00
-9.902895094324207781e-01 -7.469408848093775921e-01 9.873160391175980211e-01
-9.961712431928989586e-01 -7.499930099832923247e-01 9.931801122237221557e-01
-1.001288984553397432e+00 -7.524546592563626790e-01 9.982824869143032132e-01
-1.001347510061469714e+00 -7.511071857701797638e-01 9.983408366920871746e-01
-1.003580969572918535e+00 -7.513879375994464427e-01 1.000567589957035874e+00
-1.003575141014118710e+00 -7.499890236550197375e-01 1.000561778899225818e+00
-1.003581765725770847e+00 -7.485994151482140424e-01 1.000568383719337984e+00
-1.003581593450713516e+00 -7.472047276147111283e-01 1.000568211961558429e+00
-1.005058400063920887e+00 -7.469076552241510347e-01 1.002040584274913826e+00
-1.003582014056225047e+00 -7.444159215450666389e-01 1.000568631304148415e+00
-1.003573477570599559e+00 -7.430150417795299278e-01 1.000560120450407542e+00
-1.001285961275072633e+00 -7.399300657707189588e-01 9.982794727137562774e-01
-9.976504546125567474e-01 -7.358571826821336259e-01 9.946548821227906290e-01
-9.998669276154339425e-01 -7.361026342172379833e-01 9.968646998833220474e-01
-1.063250693008533698e+00 -8.178846514684463553e-01 1.061533791128040694e+00
-1.063417467313060305e+00 -8.165331764022207839e-01 1.061700296130963173e+00
-1.063250693008533698e+00 -8.149255897771711110e-01 1.061533791128040694e+00
-1.061157214128526372e+00 -8.118444308718517632e-01 1.059443692728148978e+00
-1.058144119283384033e+00 -8.080668203638232683e-01 1.056435463328418312e+00
-1.061173650731574769e+00 -8.089037245753422090e-01 1.059460102789917091e+00
-1.063464133093529940e+00 -8.091698689432625935e-01 1.061746886557081382e+00
-1.064797458153341925e+00 -8.087026877239682499e-01 1.063078058607901832e+00
-9.889455570056789879e-01 -7.497178170722257340e-01 9.873486405891713780e-01
-9.925621944669612562e-01 -7.510784166774193693e-01 9.909594380244849399e-01
-9.925984566415502197e-01 -7.497246394107545120e-01 9.909956416441196847e-01
-9.984982498384928906e-01 -7.527914157636218517e-01 9.968859080510954485e-01
-9.998883651265045858e-01 -7.524480953915908543e-01 9.982737786271425051e-01
-9.999615059049467014e-01 -7.511116732757632253e-01 9.983468013002865238e-01
-1.002174807495075592e+00 -7.513796311877098955e-01 1.000556528924569699e+00
-1.002182776861087588e+00 -7.499910523776349702e-01 1.000564485421914451e+00
-1.003622646856551004e+00 -7.496720325290561204e-01 1.002002030363165375e+00
-1.003687682243999957e+00 -7.483239638193119880e-01 1.002066960733632106e+00
-1.003693166842384965e+00 -7.469313974287620228e-01 1.002072436475669903e+00
-1.002184616570831688e+00 -7.444142035590100015e-01 1.000566322160956423e+00
-1.002172515812597586e+00 -7.430106756623602315e-01 1.000554240942624462e+00
-9.984952444397360294e-01 -7.388949241948886693e-01 9.968829075053567967e-01
-9.962836267401539159e-01 -7.358719633253647530e-01 9.946748610525297796e-01
-9.999542766048729048e-01 -7.371917146546296262e-01 9.983395836738462314e-01
-9.860531717424387832e-01 -7.595593160754370299e-01 9.858332454735974082e-01
-9.860664124693869770e-01 -7.581954750737318616e-01 9.858464832473744499e-01
-1.065407634839818485e+00 -8.177170670752594850e-01 1.065170009595419742e+00
-1.063260112984266037e+00 -8.145872039649251217e-01 1.063022966716541617e+00
-9.875979881208327704e-01 -7.552445939325566071e-01 9.873777173008942976e-01
-9.875783542929099657e-01 -7.538534321867474963e-01 9.873580878520401560e-01
-9.897653765793130720e-01 -7.541436688157401314e-01 9.895446223517141426e-01
-9.934324367536807587e-01 -7.555534508536344562e-01 9.932108646362509674e-01
-9.948785322950148835e-01 -7.552669568335432793e-01 9.946566376448802149e-01
-9.934070907538447015e-01 -7.527656354304439468e-01 9.931855242895089031e-01
-9.933959616782623847e-01 -7.513729484716712426e-01 9.931743976961214804e-01
-9.971083000217708658e-01 -7.527914157636218517e-01 9.968859080510954485e-01
-9.970933072656067431e-01 -7.513906907508230981e-01 9.968709186388694521e-01
-1.000772123861222829e+00 -7.527684453465273151e-01 1.000548914722538818e+00
-1.000790803261915940e+00 -7.513879375994464427e-01 1.000567589957035874e+00
-1.000791272707837187e+00 -7.499937312407320977e-01 1.000568059298253099e+00
-1.002252821215917633e+00 -7.496924213702939044e-01 1.002029281827046425e+00
-1.002305443027752707e+00 -7.483351141233742787e-01 1.002081891902274480e+00
-1.002290508528165480e+00 -7.469273158838523052e-01 1.002066960733632106e+00
-9.985352500466692094e-01 -7.427374055756499338e-01 9.983125398134459205e-01
-9.971063520598284491e-01 -7.402851287380622924e-01 9.968839605236203827e-01
-9.948918715849376371e-01 -7.372546860563932158e-01 9.946699739596486234e-01
-9.984980516121880756e-01 -7.385356464400438803e-01 9.982753496755891742e-01
-1.000779350007011015e+00 -7.388284587419332583e-01 1.000556139256629562e+00
-9.883880720185481694e-01 -7.624206956193101403e-01 9.895470345386084832e-01
-9.883552354052677069e-01 -7.610162139278618953e-01 9.895141594218239689e-01
-9.898379186879852076e-01 -7.607766328843170722e-01 9.909985812669569460e-01
-9.884104917937209800e-01 -7.583003016605042168e-01 9.895694806027257595e-01
-9.920183124353331161e-01 -7.596839279077981510e-01 9.931815316969517804e-01
-9.920126492844147936e-01 -7.582953352732583197e-01 9.931758619055448545e-01
-9.920470696401700872e-01 -7.569373423783750665e-01 9.932103226218663705e-01
-9.920067078840665298e-01 -7.555222986135917695e-01 9.931699135384387533e-01
-9.934639292873017613e-01 -7.552458521762999144e-01 9.946288436480391626e-01
-9.920352343233643788e-01 -7.527754499773152697e-01 9.931984734272236715e-01
-9.935268177776642728e-01 -7.525209235542618114e-01 9.946918058800879869e-01
-9.957010942024909772e-01 -7.527783697344979652e-01 9.968686318145212333e-01
-9.971172837082756812e-01 -7.524576704839853747e-01 9.982864819135537360e-01
-9.993819407016302225e-01 -7.527721165946410498e-01 1.000553794394818619e+00
-9.993924266651551536e-01 -7.513854614511240593e-01 1.000564292653957965e+00
-9.993965912745750302e-01 -7.499940332030161638e-01 1.000568462146709026e+00
-1.000860560632433449e+00 -7.496960622075343750e-01 1.002034148123438495e+00
-9.993965912745750302e-01 -7.472049144480774618e-01 1.000568462146709026e+00
-9.993842828171269899e-01 -7.458011697530877449e-01 1.000556139256629562e+00
-9.971667389853533514e-01 -7.427548562015982014e-01 9.983359951808218336e-01
-9.971606662339494997e-01 -7.413588934554883325e-01 9.983299153086406807e-01
-9.957117624364048014e-01 -7.388922596005814691e-01 9.968793125577759540e-01
-9.957014784908879701e-01 -7.374952249353455835e-01 9.968690165535264436e-01
-1.000823349487279579e+00 -7.398923372001161569e-01 1.001996893345298956e+00
-9.906585435288559616e-01 -7.652403064845223479e-01 9.932066119690940997e-01
-9.906278723544980069e-01 -7.638323585319166664e-01 9.931758619055448545e-01
-9.906627852858087557e-01 -7.624749738552252243e-01 9.932108646362509674e-01
-9.906388682933834344e-01 -7.610722946878577533e-01 9.931868861270357618e-01
-9.957437003016397226e-01 -7.636027495124115827e-01 9.983048482510296084e-01
-9.943127822116296644e-01 -7.611160210560276029e-01 9.968702497029550136e-01
-9.957268408975848972e-01 -7.608070588589109784e-01 9.982879454829765020e-01
-9.943201080295472893e-01 -7.583427984106037023e-01 9.968775943635763692e-01
-9.921399271795409147e-01 -7.552936609291852621e-01 9.946918058800879869e-01
-9.943104385969271375e-01 -7.555566204671416708e-01 9.968679000602516105e-01
-9.943260821396505689e-01 -7.541790841670407142e-01 9.968835838396616911e-01
-9.957535520512286187e-01 -7.538703771385303343e-01 9.983147253402598897e-01
-9.979971317808079556e-01 -7.541744051083205669e-01 1.000564075771297912e+00
-9.979847943289176238e-01 -7.527705458204909661e-01 1.000551706586302325e+00
-9.979913152006807397e-01 -7.513809193166689493e-01 1.000558244230370653e+00
-9.980015069029869457e-01 -7.499940332030161638e-01 1.000568462146709026e+00
-9.995009128304658264e-01 -7.497241760234871766e-01 1.002071724689514998e+00
-9.980006369509135666e-01 -7.472042631139261815e-01 1.000567589957035874e+00
-9.980001256447265101e-01 -7.458093228510108696e-01 1.000567077335720478e+00
-9.979896042954913282e-01 -7.444069174610236095e-01 1.000556528924569699e+00
-9.957142774047017530e-01 -7.413183730656658366e-01 9.982753496755891742e-01
-9.943150196584111811e-01 -7.388872048373473778e-01 9.968724929046635097e-01
-9.957971675111146892e-01 -7.385971272279688860e-01 9.983584529832766341e-01
-9.979829963703780171e-01 -7.388238545198713147e-01 1.000549904003241508e+00
-9.943754878605735037e-01 -7.691867122745148500e-01 9.983286583261922198e-01
-9.929323374409425584e-01 -7.666809631303067585e-01 9.968797706174928885e-01
-9.929370353830541118e-01 -7.652951658162168158e-01 9.968844872364184262e-01
-9.929323374409425584e-01 -7.639021267289645145e-01 9.968797706174928885e-01
-9.943467246045102348e-01 -7.635988733618200852e-01 9.982997807209160746e-01
-9.943531271810006622e-01 -7.622123838348433544e-01 9.983062087510470306e-01
-9.929166140289710230e-01 -7.597218414898074812e-01 9.968639846966114160e-01
-9.943644070360344589e-01 -7.594381860912265969e-01 9.983175334494929221e-01
-9.944086396342693979e-01 -7.580804843965344153e-01 9.983619418957884184e-01
-9.943754878605735037e-01 -7.566637737606389802e-01 9.983286583261922198e-01
-9.929361355635575315e-01 -7.541790841670407142e-01 9.968835838396616911e-01
-9.965863800396761452e-01 -7.555570755961060758e-01 1.000548339975441570e+00
-9.966064533876149989e-01 -7.541777346857359010e-01 1.000568493125595149e+00
-9.966064225313988612e-01 -7.527831519579548658e-01 1.000568462146709026e+00
-9.980727153671451468e-01 -7.524940999154310362e-01 1.002040584274913826e+00
-9.980879500961968853e-01 -7.511089536053975335e-01 1.002055879570101560e+00
-9.966065910190103905e-01 -7.485996003847728009e-01 1.000568631304148415e+00
-9.966049328800420382e-01 -7.472037975830950751e-01 1.000566966573197325e+00
-9.943543827758885012e-01 -7.441250412579357709e-01 9.983074693375912911e-01
-9.943827956628096265e-01 -7.427548562015982014e-01 9.983359951808218336e-01
-9.929250885463175580e-01 -7.402766128945820201e-01 9.968724929046635097e-01
-9.943644070360344589e-01 -7.399582765909019644e-01 9.983175334494929221e-01
-9.943594331737306558e-01 -7.385631601340483243e-01 9.983125398134459205e-01
-9.966065485230413135e-01 -7.388376515875937356e-01 1.000568588639235257e+00
-9.929711132832629294e-01 -7.691770967808860826e-01 9.983161783617043872e-01
-9.929896224423870876e-01 -7.677999882247106278e-01 9.983347871537974205e-01
-9.915313170166687451e-01 -7.652829938164662504e-01 9.968686318145212333e-01
-9.929896224423870876e-01 -7.650170959150885963e-01 9.983347871537974205e-01
-9.951918953941208956e-01 -7.653192345427457521e-01 1.000548914722538818e+00
-9.952059034306526275e-01 -7.639354551954896655e-01 1.000562998162942696e+00
-9.930074147083605141e-01 -7.608563901376430572e-01 9.983526751937750188e-01
-9.951967489402431255e-01 -7.611393501988793497e-01 1.000553794394818619e+00
-9.952003885812220618e-01 -7.597475898092346247e-01 1.000557453627624271e+00
-9.952037719624838852e-01 -7.583556239467841298e-01 1.000560855221292123e+00
-9.952056448517089260e-01 -7.569624997082408102e-01 1.000562738192094070e+00
-9.966796123059457058e-01 -7.566869959858948391e-01 1.002044639867035736e+00
-9.952110893141714598e-01 -7.541775227585587604e-01 1.000568211961558429e+00
-9.952112182028421961e-01 -7.527830612218655570e-01 1.000568341544024076e+00
-9.966755784277899766e-01 -7.524940999154310362e-01 1.002040584274913826e+00
-9.966755784277899766e-01 -7.510974887426110636e-01 1.002040584274913826e+00
-9.966699753648894378e-01 -7.496966629374026692e-01 1.002034951051281153e+00
-9.952113077282420672e-01 -7.472048916000484375e-01 1.000568431551330351e+00
-9.915438782785698235e-01 -7.430619644008504832e-01 9.968812606924499775e-01
-9.915292443183323368e-01 -7.416615979547075410e-01 9.968665479590551604e-01
-9.915484815626799397e-01 -7.402865606413757682e-01 9.968858887555823722e-01
-9.915292443183323368e-01 -7.388827984119772374e-01 9.968665479590551604e-01
-9.951971930971961200e-01 -7.402215965495135830e-01 1.000554240942624462e+00
-9.966422399333018101e-01 -7.398998491076002049e-01 1.002007066322614381e+00
-9.915963580276792033e-01 -7.691904302722117892e-01 9.983334839213215961e-01
-9.937985505512042517e-01 -7.695041567653668757e-01 1.000550638629966516e+00
-9.916154197902838918e-01 -7.664222744839315205e-01 9.983526751937750188e-01
-9.938079683847922396e-01 -7.667223535480208740e-01 1.000560120450407542e+00
-9.915755552584381016e-01 -7.636086327836580923e-01 9.983125398134459205e-01
-9.938108266774521304e-01 -7.639354551954896655e-01 1.000562998162942696e+00
-9.952549164978822249e-01 -7.636489388128611111e-01 1.002016899450350440e+00
-9.938147683073974559e-01 -7.611493705129773746e-01 1.000566966573197325e+00
-9.916071038009887095e-01 -7.580670905293960260e-01 9.983443027038015893e-01
-9.938160999504606075e-01 -7.583612720773001969e-01 1.000568307263739243e+00
-9.952549164978822249e-01 -7.580626261660954324e-01 1.002016899450350440e+00
-9.952663790041464953e-01 -7.566747626454186637e-01 1.002028439835428220e+00
-9.952333032842146654e-01 -7.552530682151921138e-01 1.001995139391708811e+00
-9.938164218041245501e-01 -7.527832792244790738e-01 1.000568631304148415e+00
-9.938163794271301921e-01 -7.513886875715279912e-01 1.000568588639235257e+00
-9.938148783224538541e-01 -7.499929951931070260e-01 1.000567077335720478e+00
-9.952623308385276646e-01 -7.496887421031014354e-01 1.002024364165672976e+00
-9.938096156417804972e-01 -7.471999235298616426e-01 1.000561778899225818e+00
-9.901583018420380133e-01 -7.430652415454308546e-01 9.968856572625575119e-01
-9.901555706412221713e-01 -7.416737693404127363e-01 9.968829075053567967e-01
-9.901584467212558582e-01 -7.402864970530119715e-01 9.968858031261169650e-01
-9.901393214952275423e-01 -7.388827984119772374e-01 9.968665479590551604e-01
-9.915767565141319073e-01 -7.385640548749449197e-01 9.983137492307376792e-01
-9.952672153136918887e-01 -7.399162534314115414e-01 1.002029281827046425e+00
