-1.077819719595336956e+00 -8.099249686629546030e-01 1.051202906143807514e+00
-1.071864424698278473e+00 -8.039928403272906809e-01 1.045394677560754992e+00
-1.056944638139299508e+00 -7.913649292148198233e-01 1.030843335898781632e+00
-1.056931533302940984e+00 -7.899183795603081926e-01 1.030830554687031553e+00
-1.055524708904123976e+00 -7.874321366069680916e-01 1.029458471889153515e+00
-1.056940689381780096e+00 -7.870517222704110916e-01 1.030839484656032479e+00
-1.059275744694165855e+00 -7.873505987754462199e-01 1.033116875657291933e+00
-1.057037247046635819e+00 -7.842498612373154376e-01 1.030933657824384619e+00
-1.057060667676889887e+00 -7.828303245304565339e-01 1.030956500080969063e+00
-1.057132918326571192e+00 -7.814468199547630611e-01 1.031026966497137654e+00
-1.059594415995707140e+00 -7.818260345488350360e-01 1.033427677354639362e+00
-1.059583130930861650e+00 -7.803773656886361376e-01 1.033416670975051188e+00
-1.057005541572254126e+00 -7.770421464851283710e-01 1.030902735318324659e+00
-1.055516889439069184e+00 -7.745129709748530544e-01 1.029450845526190594e+00
-1.055509223583049216e+00 -7.730725416817475493e-01 1.029443368978879558e+00
-1.056946215775214082e+00 -7.726882610614635993e-01 1.030844874574895931e+00
-1.062981187673039729e+00 -7.756552101336401384e-01 1.036730812531080792e+00
-1.075576560650974400e+00 -7.833839454069695396e-01 1.049015142125032884e+00
-1.079228104508939579e+00 -7.845764593295099232e-01 1.052576510919478014e+00
-1.079221291464707466e+00 -7.831044691654733825e-01 1.052569866123723941e+00
-1.081511455566428692e+00 -7.832961075100420834e-01 1.054803474505076943e+00
-1.081505381867279292e+00 -7.818215664735471693e-01 1.054797550796240602e+00
-1.082942777686313862e+00 -7.813885656566839089e-01 1.056199450051540367e+00
-1.085256237228001464e+00 -7.815825827861265784e-01 1.058455778590770446e+00
-1.076362772841024107e+00 -8.099315428540865280e-01 1.051211438796942899e+00
-1.076362772841024107e+00 -8.084663989632505654e-01 1.051211438796942899e+00
-1.055505193145332088e+00 -7.913633182941213207e-01 1.030841237490316420e+00
-1.055494254744796301e+00 -7.899183795603081926e-01 1.030830554687031553e+00
-1.054089343429737369e+00 -7.874321366069726436e-01 1.029458471889159510e+00
-1.055499224488878784e+00 -7.870486099522336909e-01 1.030835408303265144e+00
-1.061564540553670888e+00 -7.901263020432552908e-01 1.036758996324057769e+00
-1.058181449641534488e+00 -7.861678598283855512e-01 1.033454957987669731e+00
-1.063638802159878161e+00 -7.887745343399145126e-01 1.038784788726508701e+00
-1.059642022138719497e+00 -7.843682138119123515e-01 1.034881401334628359e+00
-1.055595941363342227e+00 -7.799363478135803440e-01 1.030929865197656170e+00
-1.055643028881138035e+00 -7.785341986435214690e-01 1.030975852422949091e+00
-1.055560941967694122e+00 -7.770368312817801382e-01 1.030895683631752213e+00
-1.054079039725803746e+00 -7.745111378045969053e-01 1.029448408951541882e+00
-1.055496983006608547e+00 -7.741162659637725874e-01 1.030833219197638373e+00
-1.057859835539509019e+00 -7.744092573833156745e-01 1.033140859031947523e+00
-1.065242390134730321e+00 -7.783636703278035140e-01 1.040350905713100849e+00
-1.076410032703889907e+00 -7.850585647647857490e-01 1.051257594340124113e+00
-1.077755752067024897e+00 -7.845729987997859256e-01 1.052571868322495385e+00
-1.077761076239012183e+00 -7.831098273730666692e-01 1.052577068084728396e+00
-1.080040751763490903e+00 -7.832961075100420834e-01 1.054803474505076943e+00
-1.081413545478974836e+00 -7.828197027726482293e-01 1.056144190194282961e+00
-1.083729153925141242e+00 -7.830207674013943686e-01 1.058405689892902179e+00
-1.081679124823809790e+00 -7.800671908310884417e-01 1.056403563755170749e+00
-1.074895297551240247e+00 -8.099302017558078770e-01 1.051209698183352304e+00
-1.074895092393284068e+00 -8.084649059847535124e-01 1.051209497546105487e+00
-1.063791837429495235e+00 -7.986637660516942017e-01 1.040350905713089302e+00
-1.056394811980853721e+00 -7.916703716290056647e-01 1.033116875657291933e+00
-1.054052493106162336e+00 -7.884782883304709555e-01 1.030826170392394880e+00
-1.054066107363526017e+00 -7.870517222704110916e-01 1.030839484656032479e+00
-1.060156446352603865e+00 -7.901542144704326587e-01 1.036795621430588898e+00
-1.052697873395969541e+00 -7.831603168937039117e-01 1.029501400082255103e+00
-1.054255884627511186e+00 -7.828823990270142863e-01 1.031025080128308069e+00
-1.058284060622557865e+00 -7.844311924396958347e-01 1.034964494210432351e+00
-1.056742100135050100e+00 -7.818478484327202604e-01 1.033456511226065189e+00
-1.054195616582585426e+00 -7.785268644550074058e-01 1.030966140105534778e+00
-1.052709590079377922e+00 -7.759945279631843551e-01 1.029512858585476254e+00
-1.052664477216150640e+00 -7.745264338265636095e-01 1.029468739796004062e+00
-1.054064088943408084e+00 -7.741194887269381431e-01 1.030837510712330429e+00
-1.057800849793352649e+00 -7.754219776484380100e-01 1.034491931058388658e+00
-1.068947001545506703e+00 -7.821356417993722276e-01 1.045392474437804697e+00
-1.076292906977060371e+00 -7.860435058129234820e-01 1.052576510919478014e+00
-1.076285612621548315e+00 -7.845711420226840760e-01 1.052569377296999731e+00
-1.078552940747330657e+00 -7.847538106743973119e-01 1.054786744253777941e+00
-1.078601369407212962e+00 -7.833188542637616880e-01 1.054834105775457553e+00
-1.082168999890559480e+00 -7.844347390752069993e-01 1.058323122586836362e+00
-1.082296283422174765e+00 -7.830517740134067539e-01 1.058447601392500381e+00
-1.082281764360338849e+00 -7.815660597067576321e-01 1.058433402261994116e+00
-1.071188955154213529e+00 -8.082395742697560115e-01 1.049015430077902655e+00
-1.073454136980639850e+00 -8.084835371769728551e-01 1.051233722823005756e+00
-1.073468515320789685e+00 -8.070291718038080653e-01 1.051247803532672886e+00
-1.058644671955755845e+00 -7.944397066532701279e-01 1.036730812531080792e+00
-1.052615220661003326e+00 -7.884782883304709555e-01 1.030826170392394880e+00
-1.052633931505910336e+00 -7.870555468748149375e-01 1.030844493924319538e+00
-1.056345522747734300e+00 -7.883888845986788407e-01 1.034479255526445041e+00
-1.051211696603464585e+00 -7.831225085115477436e-01 1.029451699169778855e+00
-1.055285198413237202e+00 -7.847167744412013590e-01 1.033440879820251901e+00
-1.052808217924770195e+00 -7.814378810214869242e-01 1.031015172628349630e+00
-1.052832411642373955e+00 -7.800188105786894921e-01 1.031038865537948102e+00
-1.052768066589941931e+00 -7.785341986434977102e-01 1.030975852422917782e+00
-1.051278220040910760e+00 -7.759975331553125022e-01 1.029516845577429063e+00
-1.051222347300801774e+00 -7.745214604578961604e-01 1.029462129398539094e+00
-1.052635428098923187e+00 -7.741258334714030687e-01 1.030845959537977752e+00
-1.060069188148129893e+00 -7.781458402738203883e-01 1.038125841353032319e+00
-1.073469006842156181e+00 -7.865168078878326252e-01 1.051248284879586770e+00
-1.074819485395183127e+00 -7.860392474589205092e-01 1.052570808635360899e+00
-1.074822804247973052e+00 -7.845746315436122886e-01 1.052574058788165567e+00
-1.077096845651072554e+00 -7.847644374694178193e-01 1.054801027717418460e+00
-1.078485064146438077e+00 -7.843038409927809429e-01 1.056160510201765268e+00
-1.080725823982434219e+00 -7.844582826492834116e-01 1.058354886489672797e+00
-1.080820498643110694e+00 -7.830517740134067539e-01 1.058447601392500381e+00
-1.078751686482810834e+00 -7.800805190670810907e-01 1.056421613477254384e+00
-1.071994460773132873e+00 -8.099532834902682943e-01 1.051239656003252199e+00
-1.071985927599901078e+00 -8.084816646325404532e-01 1.051231288040150869e+00
-1.069724863445548957e+00 -8.053143102236244300e-01 1.049014000180185313e+00
-1.068318050248370454e+00 -8.027950694357404160e-01 1.047634424188350399e+00
-1.053544046305035842e+00 -7.902530753439866995e-01 1.033146458633024123e+00
-1.053521279202322969e+00 -7.887960635645019369e-01 1.033124132322488009e+00
-1.053483138575357136e+00 -7.873276245148553842e-01 1.033086730133355058e+00
-1.060885853752028485e+00 -7.914100927268408192e-01 1.040346121893832576e+00
-1.053822464490678845e+00 -7.847005298858783506e-01 1.033419486384948627e+00
-1.057843570452332127e+00 -7.862488961638947060e-01 1.037362740014106777e+00
-1.055282688076181419e+00 -7.829031623477145097e-01 1.034851438690564285e+00
-1.051364590205390526e+00 -7.785593799420782446e-01 1.031009198820307171e+00
-1.049825089886697871e+00 -7.759844624463781981e-01 1.029499504652417574e+00
-1.051189512429660855e+00 -7.755562361076488997e-01 1.030837510712330429e+00
-1.057258225559860154e+00 -7.785886249293357819e-01 1.036788727940423094e+00
-1.069720993674367682e+00 -7.863044104744423279e-01 1.049010205331355250e+00
-1.073354815122261385e+00 -7.875084287639662062e-01 1.052573672633328128e+00
-1.073351366004802854e+00 -7.860388603717343159e-01 1.052570290293975308e+00
-1.075632724256941453e+00 -7.862393933637337184e-01 1.054807479339214149e+00
-1.075670443246882213e+00 -7.847967567702905933e-01 1.054844468054604967e+00
-1.079227490414324642e+00 -7.859168681866119943e-01 1.058332647497241874e+00
-1.079347701834911577e+00 -7.845291752506980965e-01 1.058450531513484227e+00
-1.079354102657153591e+00 -7.830585854713254523e-01 1.058456808409884431e+00
-1.080371852677523892e+00 -7.823203177352621163e-01 1.059454853848048161e+00
-1.071883256446405142e+00 -8.109781101744146792e-01 1.052569780188022941e+00
-1.070510725626304227e+00 -8.084745059922885391e-01 1.051221979991568078e+00
-1.070505959449428612e+00 -8.070057544055100340e-01 1.051217299692929208e+00
-1.070517463802737490e+00 -8.055492592091954007e-01 1.051228596757754818e+00
-1.057179986291953089e+00 -7.940660824986461863e-01 1.038131437447392003e+00
-1.052032552649318831e+00 -7.887598881378226068e-01 1.033076751626734291e+00
-1.055795141815224936e+00 -7.901358658921238121e-01 1.036771545465034805e+00
-1.060887562342014423e+00 -7.924949432686309025e-01 1.041772209410731787e+00
-1.053475860504445860e+00 -7.855164748700509403e-01 1.034494053578862260e+00
-1.049836869800136352e+00 -7.813662251652016000e-01 1.030920631172359103e+00
-1.049811464500108649e+00 -7.799104882022008800e-01 1.030895683631752213e+00
-1.048353636763992958e+00 -7.773926270695687979e-01 1.029464123421695021e+00
-1.052082937332974311e+00 -7.787181027405872813e-01 1.033126228465822249e+00
-1.053469588705909565e+00 -7.783026225207094750e-01 1.034487894787252227e+00
-1.064562670710802239e+00 -7.850411662788578937e-01 1.045381098704073919e+00
-1.070496520866935919e+00 -7.879518302491492765e-01 1.051208031177314428e+00
-1.071882975684540718e+00 -7.875053102630708013e-01 1.052569504485000085e+00
-1.074143228312581799e+00 -7.876957726506098600e-01 1.054789031282866052e+00
-1.074195408123905571e+00 -7.862638357581341886e-01 1.054840270904536581e+00
-1.075557330293639868e+00 -7.857886373024066673e-01 1.056177653600095079e+00
-1.077875650467879254e+00 -7.860071342038413844e-01 1.058454201667740513e+00
-1.075818053407001429e+00 -7.830342733704583891e-01 1.056433678935382758e+00
-1.075818053407001429e+00 -7.815618508932669073e-01 1.056433678935382758e+00
-1.081142284125688802e+00 -7.839500961980881977e-01 1.061661976255576345e+00
-1.070422126633925552e+00 -8.109830041320658101e-01 1.052576132063449021e+00
-1.070417118235978293e+00 -8.095121705325794004e-01 1.052571207165123424e+00
-1.070422715997050522e+00 -8.080493571245153106e-01 1.052576711600757609e+00
-1.069036143659268800e+00 -8.055375037602521271e-01 1.051213256089315706e+00
-1.069105704605920248e+00 -8.041246773957614336e-01 1.051281657321266438e+00
-1.052022649052744896e+00 -7.898338790334263892e-01 1.034483409143670762e+00
-1.059423926669150751e+00 -7.939386117251705510e-01 1.041761293234410024e+00
-1.063107248998169219e+00 -7.952418947612155398e-01 1.045383207499591460e+00
-1.061751106335785844e+00 -7.927722899338226492e-01 1.044049674342362621e+00
-1.063118555678481680e+00 -7.923362801785475140e-01 1.045394325675807812e+00
-1.055731253636821965e+00 -7.853836538469531892e-01 1.038130184160117819e+00
-1.050584921711116948e+00 -7.801153163463896423e-01 1.033069651480634343e+00
-1.054327435384935674e+00 -7.814493445880666966e-01 1.036749770257112013e+00
-1.063118314765401973e+00 -7.865079571876828490e-01 1.045394088779212138e+00
-1.069030830161037615e+00 -7.894169693905571661e-01 1.051208031177314428e+00
-1.070415254374292635e+00 -7.889722494568079947e-01 1.052569374377595013e+00
-1.072675162559906026e+00 -7.891678288717953738e-01 1.054791605549433298e+00
-1.074060283221245804e+00 -7.887148309022382620e-01 1.056153633586670360e+00
-1.074099101349928587e+00 -7.872712508632199180e-01 1.056191804542526258e+00
-1.076332028127214402e+00 -7.874327503329073830e-01 1.058387504137981328e+00
-1.074318646745279215e+00 -7.844873962605417583e-01 1.056407689694094376e+00
-1.073071014447475990e+00 -7.821056756862552195e-01 1.055180857825074092e+00
-1.079629693911078103e+00 -7.854062909697895334e-01 1.061630191493980080e+00
-1.081064077034332715e+00 -7.849681413213653869e-01 1.063040660693192363e+00
-1.068952813103535515e+00 -8.109817027921313315e-01 1.052574443052276543e+00
-1.071191849414236064e+00 -8.112102744638040042e-01 1.054779173110348189e+00
-1.068949972847074381e+00 -8.080454685701234929e-01 1.052571646313892995e+00
-1.068954382117031532e+00 -8.065817558906688278e-01 1.052575988025531428e+00
-1.068951478452545123e+00 -8.051125231549842720e-01 1.052573128850652795e+00
-1.065335472752207746e+00 -8.009269420500498837e-01 1.049012527166976794e+00
-1.054283071511890491e+00 -7.911707558916063476e-01 1.038129469526535953e+00
-1.056609006675565565e+00 -7.914661158772399174e-01 1.040419766983514460e+00
-1.052862650999377037e+00 -7.872149002995662004e-01 1.036730812531080792e+00
-1.052921467589640336e+00 -7.858138348859926570e-01 1.036788727940423094e+00
-1.049144521198741797e+00 -7.815551748114069053e-01 1.033069651480634343e+00
-1.057981053544679195e+00 -7.866859213366150794e-01 1.041770791510879812e+00
-1.065338420833283450e+00 -7.906945762754746809e-01 1.049015430077898881e+00
-1.068951767899537941e+00 -7.919093616590351381e-01 1.052573413862772478e+00
-1.068949616821186721e+00 -7.904407288653679808e-01 1.052571295742992463e+00
-1.071209474809634798e+00 -7.906416527306907582e-01 1.054796528451498849e+00
-1.072600210259232911e+00 -7.901960817855092634e-01 1.056165955215102814e+00
-1.074810495015486422e+00 -7.903493395235728913e-01 1.058342374246683759e+00
-1.074887473408721705e+00 -7.889307562856942013e-01 1.058418173185975864e+00
-1.071621447058226817e+00 -7.850628982359736385e-01 1.055202188509453798e+00
-1.078209488409399341e+00 -7.884095068833257836e-01 1.061689288661127328e+00
-1.079560629899132262e+00 -7.879158881273711224e-01 1.063019728118891116e+00
-1.081726802810512256e+00 -7.880122917648912928e-01 1.065152711182129286e+00
-1.004968197220116766e+00 -7.307162397668579557e-01 9.895701919741889396e-01
-1.067482272160854784e+00 -8.109794653937153486e-01 1.052571539129310674e+00
-1.067484453370012742e+00 -8.095140799337212645e-01 1.052573689871051821e+00
-1.067489430380355708e+00 -8.080508047986169062e-01 1.052578597361858437e+00
-1.067483627262911794e+00 -8.065793706328501234e-01 1.052572875303123601e+00
-1.066113595162458516e+00 -8.040790302438708403e-01 1.051221979991568078e+00
-1.067487442971203349e+00 -8.036481604215247598e-01 1.052576637713098950e+00
-1.066153437186463160e+00 -8.011786530268749651e-01 1.051261265496931774e+00
-1.060196828132632829e+00 -7.952454333505752926e-01 1.045387859143222409e+00
-1.056528521104374674e+00 -7.910418788190991535e-01 1.041770791510879812e+00
-1.055126832762460554e+00 -7.885423500944730435e-01 1.040388682136415222e+00
-1.063870488492725697e+00 -7.936147898949930113e-01 1.049010205331355250e+00
-1.066104992383466010e+00 -7.938165145774589426e-01 1.051213497377326167e+00
-1.067483102388038896e+00 -7.933756077890459224e-01 1.052572357759772093e+00
-1.067485217220806026e+00 -7.919101359753843994e-01 1.052574443052276543e+00
-1.069738780691522395e+00 -7.921117934014432205e-01 1.054796528451498849e+00
-1.071113000185450748e+00 -7.916573354295940446e-01 1.056151552666465543e+00
-1.071150141056893323e+00 -7.902127058669734527e-01 1.056188174749322251e+00
-1.073447487393439204e+00 -7.904322748657258701e-01 1.058453431449535520e+00
-1.076562918507870226e+00 -7.912468012210479573e-01 1.061525345811663357e+00
-1.080220243784608458e+00 -7.924502984326544652e-01 1.065131585087038202e+00
-9.998222234074919390e-01 -7.320962020978102336e-01 9.858565748519836358e-01
-1.003598871998731656e+00 -7.334823191278854182e-01 9.895804707180807513e-01
-1.003574108478292093e+00 -7.320850100132262339e-01 9.895560530977575153e-01
-1.007274689137838131e+00 -7.334002050197727662e-01 9.932049435590537545e-01
-1.066012498414582010e+00 -8.109778054858055585e-01 1.052569384732192193e+00
-1.066012563477408914e+00 -8.095108183421809711e-01 1.052569448974534305e+00
-1.066014680327041386e+00 -8.080453862859232617e-01 1.052571539129310674e+00
-1.066015834060054512e+00 -8.065792196806682579e-01 1.052572678312997168e+00
-1.066012508748994225e+00 -8.051096670862334381e-01 1.052569394936280656e+00
-1.066019572102260948e+00 -8.036479554225238742e-01 1.052576369216050578e+00
-1.064654939766825015e+00 -8.011540217922094032e-01 1.051228945785432467e+00
-1.064687672256391160e+00 -7.997134396892251473e-01 1.051261265496931774e+00
-1.064687672256391160e+00 -7.982482263515754406e-01 1.051261265496931774e+00
-1.064630300374401983e+00 -7.967400774731236979e-01 1.051204617111836770e+00
-1.066015509412813422e+00 -7.963096891787966314e-01 1.052572357759769872e+00
-1.066016033566082433e+00 -7.948430393031614694e-01 1.052572875303123601e+00
-1.066018445772279888e+00 -7.933777931568516406e-01 1.052575257089826133e+00
-1.068294993526829773e+00 -7.936019223807518896e-01 1.054823096090666823e+00
-1.069660695621680979e+00 -7.931444012876073257e-01 1.056171575790335160e+00
-1.071904925169344436e+00 -7.933333329506137011e-01 1.058387504137981328e+00
-1.071975593145084948e+00 -7.919103925000777755e-01 1.058457280944403500e+00
-1.076550090827280703e+00 -7.938082149714468239e-01 1.062974091223803264e+00
-1.002220637196157949e+00 -7.376211785579714908e-01 9.895819805380954293e-01
-1.002182801881756458e+00 -7.362141375527470055e-01 9.895446223517141426e-01
-1.003608722583648749e+00 -7.358804770037391529e-01 9.909525612624677793e-01
-1.003634569348807570e+00 -7.345182361205343513e-01 9.909780820830407233e-01
-1.003660714051151093e+00 -7.331561417349380383e-01 9.910038970836160255e-01
-1.003654146685738269e+00 -7.317701248286867521e-01 9.909974125369691578e-01
-1.064544909584626886e+00 -8.109778054858055585e-01 1.052569384732192193e+00
-1.064545130940230511e+00 -8.095109372598469077e-01 1.052569603597671266e+00
-1.064546007036156761e+00 -8.080445654050000259e-01 1.052570469838016498e+00
-1.064544909584626886e+00 -8.065766958323008495e-01 1.052569384732192193e+00
-1.064544974557880996e+00 -8.051097084200595777e-01 1.052569448974534305e+00
-1.064544997489293987e+00 -8.036426890906567255e-01 1.052569471647981869e+00
-1.064545835239984806e+00 -8.021762836957562204e-01 1.052570299974453727e+00
-1.064545213702035920e+00 -8.007087783727070418e-01 1.052569685428453417e+00
-1.064546389088154799e+00 -7.992426238615731870e-01 1.052570847592146919e+00
-1.064545281129546606e+00 -7.977747549626321710e-01 1.052569752097442857e+00
-1.064545309539731921e+00 -7.963077391510042791e-01 1.052569780188029824e+00
-1.064548908207159084e+00 -7.948433889867559943e-01 1.052573338372494893e+00
-1.066843890644277870e+00 -7.950867284474683050e-01 1.054842503562295919e+00
-1.068202851627709782e+00 -7.946274437595934881e-01 1.056186177007471638e+00
-1.070465659573354600e+00 -7.948355323851620247e-01 1.058423529650531103e+00
-1.071495413257856244e+00 -7.941235237571557803e-01 1.059441699191677522e+00
-1.075185117317045247e+00 -7.953763955351910164e-01 1.063089896178444294e+00
-1.000794530877071153e+00 -7.389662086033828015e-01 9.895361615318311044e-01
-1.002250806766619817e+00 -7.386603031331296920e-01 9.909760551457702515e-01
-1.004497451852808476e+00 -7.389317979600893427e-01 9.931974267523510091e-01
-1.004489282754528201e+00 -7.375415139672029108e-01 9.931893495517807313e-01
-1.004509931259151445e+00 -7.361723719654891251e-01 9.932097657724692219e-01
-1.002227045583519827e+00 -7.331181629008722833e-01 9.909525612624677793e-01
-1.000808964615819363e+00 -7.307016493142806102e-01 9.895504328992262844e-01
-1.063078964797053994e+00 -8.109790596578749788e-01 1.052571012524117666e+00
-1.063078101803443420e+00 -8.095113636866647644e-01 1.052570158060725403e+00
-1.063078416693247430e+00 -8.080445654050000259e-01 1.052570469838016498e+00
-1.063078416693247430e+00 -8.065775273414470536e-01 1.052570469838016498e+00
-1.063077408538154689e+00 -8.051097257629667991e-01 1.052569471647983645e+00
-1.063077331060632291e+00 -8.036426305208458354e-01 1.052569394936284208e+00
-1.063077509180260671e+00 -8.021757283607469091e-01 1.052569571295297601e+00
-1.063081668872286834e+00 -8.007118246245460425e-01 1.052573689871050489e+00
-1.063081313864678856e+00 -7.992445151716240925e-01 1.052573338372498002e+00
-1.063077691787374768e+00 -7.977747549626305057e-01 1.052569752097440636e+00
-1.063084603202511191e+00 -7.963128949558847536e-01 1.052576595197030729e+00
-1.065381949947599605e+00 -7.965635258729257817e-01 1.054851233930060639e+00
-1.068898118915767803e+00 -7.977174217629885433e-01 1.058332647497242984e+00
-1.069023179738095131e+00 -7.963355127293112456e-01 1.058456472161960482e+00
-1.072260684792810670e+00 -7.972674817507170442e-01 1.061661976255576345e+00
-9.957078137688318842e-01 -7.389733804135654172e-01 9.858657883583581416e-01
-1.000845368583390904e+00 -7.414051052094730032e-01 9.909525612624677793e-01
-1.003095157473400612e+00 -7.416874395515836715e-01 9.931801122237221557e-01
-1.003105745517709035e+00 -7.403109919897064017e-01 9.931905956110221867e-01
-1.003125669465848580e+00 -7.389413923949827989e-01 9.932103226218663705e-01
-1.004573957056885014e+00 -7.386219549088717251e-01 9.946442946847171562e-01
-1.000869097009162711e+00 -7.345167337438263111e-01 9.909760551457702515e-01
-9.971947765686572929e-01 -7.304441081514057021e-01 9.873380533467795983e-01
-1.000842463006463401e+00 -7.317348815271128570e-01 9.909496844055738496e-01
-1.067458750925639466e+00 -8.154459489579019005e-01 1.058368595257444866e+00
-1.063857126782875806e+00 -8.112244781113890912e-01 1.054797641455889057e+00
-1.063839058211598854e+00 -8.097405830051068731e-01 1.054779726751096769e+00
-1.063844804189626903e+00 -8.082748313600428558e-01 1.054785423798114907e+00
-1.061619020805415037e+00 -8.051167038355949712e-01 1.052578594511593968e+00
-1.061613375711885965e+00 -8.036453810907719930e-01 1.052572997489972906e+00
-1.061613375711885965e+00 -8.021783395042608733e-01 1.052572997489972906e+00
-1.061615233333102370e+00 -8.007126990100206232e-01 1.052574839292249376e+00
-1.061610102445205150e+00 -7.992417920258203523e-01 1.052569752097440636e+00
-1.063844155165882821e+00 -7.994535924734146315e-01 1.054784780301260660e+00
-1.065230614930418040e+00 -7.990234437841942094e-01 1.056159433394037839e+00
-1.067432304706882995e+00 -7.991998360467932327e-01 1.058342374246683759e+00
-1.067526862718986447e+00 -7.977954193825145257e-01 1.058436127031373131e+00
-1.070825105709242608e+00 -7.987805258152340659e-01 1.061706283182501265e+00
-9.958215443400973976e-01 -7.414555976248429214e-01 9.873414294429702087e-01
-1.003188866904163534e+00 -7.455547560803225116e-01 9.946460141177201342e-01
-1.003207975594433421e+00 -7.441826260985401342e-01 9.946649600841667160e-01
-1.003194309943589602e+00 -7.427861764924247323e-01 9.946514108058696069e-01
-9.980196405847264751e-01 -7.375755808927273449e-01 9.895208073652095315e-01
-9.995184667202337003e-01 -7.373020393318518995e-01 9.910068699509501089e-01
-9.995071419753026598e-01 -7.359124684562453611e-01 9.909956416441196847e-01
-9.958604441567778798e-01 -7.318513170216740527e-01 9.873799980005844024e-01
-9.980828721299496165e-01 -7.321053158815808981e-01 9.895835004497299803e-01
-9.995120103378611898e-01 -7.317723814424839102e-01 9.910004685491760057e-01
-1.064019346374246666e+00 -8.139437528613535644e-01 1.056418892552394961e+00
-1.066068522854116463e+00 -8.140360755336086829e-01 1.058453431449535520e+00
-1.065954004113564002e+00 -8.124735514415232229e-01 1.058339730733958151e+00
-1.063755644104961817e+00 -8.093259174571352244e-01 1.056157073948973180e+00
-1.063764589267768734e+00 -8.078606737777365154e-01 1.056165955215106589e+00
-1.063749157876168860e+00 -8.063769266514123624e-01 1.056150634052309911e+00
-1.062399290358059023e+00 -8.038834971799966311e-01 1.054810408845471947e+00
-1.062395041312298449e+00 -8.024101279263237130e-01 1.054806190151298617e+00
-1.062447590360124483e+00 -8.009795905339861521e-01 1.054858363833194757e+00
-1.063774993563614046e+00 -8.005082565188149646e-01 1.056176285191466446e+00
-1.065950438813554779e+00 -8.006702408726359410e-01 1.058336190901435048e+00
-1.066046458030121213e+00 -7.992671570387087643e-01 1.058431524237971155e+00
-1.070657453168765816e+00 -8.012426578073967853e-01 1.063009582329236480e+00
-9.966697985435424290e-01 -7.444936774251579292e-01 9.895504328992262844e-01
-1.001814396069027779e+00 -7.469502734843065372e-01 9.946582817734229698e-01
-1.004038549726276264e+00 -7.472191970401681482e-01 9.968665479590551604e-01
-1.004049167271992227e+00 -7.458376842986096378e-01 9.968770896620090527e-01
-1.005463219010442888e+00 -7.454967128834322221e-01 9.982810406114316359e-01
-1.001826172375219759e+00 -7.414137008329431122e-01 9.946699739596486234e-01
-1.000325591761199950e+00 -7.389189160743474538e-01 9.931801122237221557e-01
-1.000340873853849510e+00 -7.375459217400751610e-01 9.931952851540338800e-01
-1.000340873853849510e+00 -7.361616388539264921e-01 9.931952851540338800e-01
-1.000327021446894227e+00 -7.347671810012014193e-01 9.931815316969517804e-01
-1.004057393548505539e+00 -7.361178140886932564e-01 9.968852571769643012e-01
-1.064587512042555195e+00 -8.155073159979944197e-01 1.058448243636470831e+00
-1.064565736191713130e+00 -8.140154348797786765e-01 1.058426593362710610e+00
-1.064523813836719235e+00 -8.125082370956380196e-01 1.058384912765756081e+00
-1.064462580642311584e+00 -8.109864430696854809e-01 1.058324032691229544e+00
-1.064494618511222068e+00 -8.095357503055650161e-01 1.058355885804002972e+00
-1.064478369737677621e+00 -8.080483142332406388e-01 1.058339730733964146e+00
-1.064488251975250321e+00 -8.065807231020885038e-01 1.058349555982601498e+00
-1.064581957021755843e+00 -8.051765023847132774e-01 1.058442720650392355e+00
-1.064596601769167261e+00 -8.037123357564126547e-01 1.058457280944403500e+00
-1.064594539022673869e+00 -8.022355384467479977e-01 1.058455230093366728e+00
-1.062535122369499652e+00 -7.992112588029692821e-01 1.056407689694094376e+00
-1.067847355950805710e+00 -8.017272350401386527e-01 1.061689288661127328e+00
-9.953050986630592734e-01 -7.458841378683523926e-01 9.895653684130650829e-01
-1.000452022164539212e+00 -7.483548993810930083e-01 9.946826106112386379e-01
-1.002645372091608644e+00 -7.486061666681594895e-01 9.968633119173554435e-01
-1.004091497438003522e+00 -7.482944895539574981e-01 9.983010977411183040e-01
-1.004091497438003522e+00 -7.469030903543404376e-01 9.983010977411183040e-01
-1.002651711697091441e+00 -7.444426878762908650e-01 9.968696149635707382e-01
-1.002659229750677561e+00 -7.430588553705222976e-01 9.968770896620090527e-01
-1.002667847045483285e+00 -7.416758151401476873e-01 9.968856572625575119e-01
-9.967436678418016838e-01 -7.359124684562453611e-01 9.909956416441196847e-01
-9.989350612317885458e-01 -7.361461569587965936e-01 9.931743976961214804e-01
-1.002662402259598240e+00 -7.375035310381002907e-01 9.968802438756898532e-01
-1.002646048773154996e+00 -7.361021061106436392e-01 9.968639846966114160e-01
-1.063041783206448709e+00 -8.154536629730608777e-01 1.058378607289999662e+00
-1.063084735245871437e+00 -8.140114183958174765e-01 1.058421370914518267e+00
-1.063041783206448709e+00 -8.125033964644753359e-01 1.058378607289999662e+00
-1.063009002636018829e+00 -8.110032538742161234e-01 1.058345970515955914e+00
-1.063009002636018607e+00 -8.095281661079839486e-01 1.058345970515955470e+00
-1.063012603900094222e+00 -8.080558158656254708e-01 1.058349555982601498e+00
-1.063084735245871437e+00 -8.066354541116944610e-01 1.058421370914518267e+00
-1.063120471740587325e+00 -8.051873273997102176e-01 1.058456950646288197e+00
-1.063120566313335846e+00 -8.037121564494027481e-01 1.058457044804180569e+00
-1.064122771665925615e+00 -8.029931838135816458e-01 1.059454853848048161e+00
-1.067676668818265062e+00 -8.041934102440085885e-01 1.062993161352010718e+00
-9.939253558145030309e-01 -7.472633614960675352e-01 9.895653684130650829e-01
-9.975502863434071443e-01 -7.486044409238757913e-01 9.931743976961214804e-01
-1.002679428933306749e+00 -7.510621978620319883e-01 9.982810406114316359e-01
-1.002740652256670417e+00 -7.497166013067891877e-01 9.983419953704438798e-01
-1.002723551838200944e+00 -7.483123834076462755e-01 9.983249699652624320e-01
-1.002729685545502569e+00 -7.469255198864258594e-01 9.983310767662311180e-01
-1.002757182381119883e+00 -7.455545229252934503e-01 9.983584529832766341e-01
-1.002699574433944418e+00 -7.441202919551067607e-01 9.983010977411183040e-01
-1.002672134952991012e+00 -7.427085675296435374e-01 9.982737786271425051e-01
-9.975628297978733627e-01 -7.375396846302121334e-01 9.931868861270357618e-01
-9.975869139554887077e-01 -7.361731864491807276e-01 9.932108646362509674e-01
-9.990266596422661127e-01 -7.358493499730275333e-01 9.946442946847171562e-01
-1.001264675218879185e+00 -7.361083887228782041e-01 9.968724929046635097e-01
-1.061621949760563455e+00 -8.154965687091070281e-01 1.058434294713115342e+00
-1.061644352520256351e+00 -8.140385356351241830e-01 1.058456630205670379e+00
-1.061644928778654240e+00 -8.125637346927655491e-01 1.058457204733779022e+00
-1.061638800031726726e+00 -8.110838095768232447e-01 1.058451094389194491e+00
-1.061608987039746932e+00 -8.095858398253437116e-01 1.058421370914518267e+00
-1.061621949760570338e+00 -8.081205143611644992e-01 1.058434294713122226e+00
-1.061643768191626425e+00 -8.066618816481821996e-01 1.058456047631561425e+00
-1.059582602174013788e+00 -8.036233822459172282e-01 1.056401070527300812e+00
-1.064796858667111490e+00 -8.060984285505689018e-01 1.061599670551509167e+00
-1.068307720916827686e+00 -8.072718056260451691e-01 1.065099990990391543e+00
-9.902895094324207781e-01 -7.469408848093775921e-01 9.873160391175980211e-01
-9.961712431928989586e-01 -7.499930099832923247e-01 9.931801122237221557e-01
-9.998880095372005838e-01 -7.514018461377710567e-01 9.968857185039349256e-01
-9.998815842984443147e-01 -7.500076000985217428e-01 9.968793125577759540e-01
-9.998655354693715136e-01 -7.486061666681594895e-01 9.968633119173554435e-01
-1.001337720741935611e+00 -7.483169608698209130e-01 9.983310767662311180e-01
-1.003567580355677835e+00 -7.485888338880536397e-01 1.000554240942624462e+00
-1.003581440327636631e+00 -7.472046136087472368e-01 1.000568059298253099e+00
-1.001314042215506017e+00 -7.441250412579357709e-01 9.983074693375912911e-01
-9.998718574982834451e-01 -7.416638797841806907e-01 9.968696149635707382e-01
-9.961969835079064195e-01 -7.375537116759822709e-01 9.932057752501572967e-01
-9.961876681600780881e-01 -7.361625303155205913e-01 9.931964878728465340e-01
-9.961625874356059285e-01 -7.347597464568762504e-01 9.931714824564423783e-01
-9.998687812569616584e-01 -7.361039988692470448e-01 9.968665479590551604e-01
-1.063406442039980027e+00 -8.180044583429100236e-01 1.061689288661127328e+00
-1.064715460296406846e+00 -8.175298257579228789e-01 1.062996193158380898e+00
-1.063357358448867362e+00 -8.150073432125972683e-01 1.061640284328566386e+00
-1.061149333129115302e+00 -8.118384014679176364e-01 1.059435824454713737e+00
-1.063383844860133376e+00 -8.120682113929114099e-01 1.061666727970455915e+00
-1.063452441428130335e+00 -8.106407845567134007e-01 1.061735213770994557e+00
-1.064797458153341925e+00 -8.101843709187722675e-01 1.063078058607901832e+00
-9.889349526397095413e-01 -7.510858971911026361e-01 9.873380533467795983e-01
-9.911303311392171134e-01 -7.513740903448935526e-01 9.895298868220526733e-01
-9.911212369974562453e-01 -7.499880345726722686e-01 9.895208073652095315e-01
-9.925788384644202988e-01 -7.497098215046050784e-01 9.909760551457702515e-01
-9.962584023740714834e-01 -7.511027418534683697e-01 9.946496774179154343e-01
-9.962883933412624016e-01 -7.497390010489177747e-01 9.946796199566892982e-01
-9.998899387159311258e-01 -7.510579162553422394e-01 9.982753496755891742e-01
-9.999271890043154309e-01 -7.496944813116526163e-01 9.983125398134459205e-01
-1.002182583781352276e+00 -7.499909078849564814e-01 1.000564292653957965e+00
-1.002185791270848281e+00 -7.485987502045104991e-01 1.000567494964106352e+00
-1.003621773033008147e+00 -7.482748235908385226e-01 1.002001157950643595e+00
-9.984916436777645510e-01 -7.430605122873090718e-01 9.968793125577759540e-01
-9.948048512373148800e-01 -7.389325766787254723e-01 9.931984734272236715e-01
-9.925788384644202988e-01 -7.358979235402607344e-01 9.909760551457702515e-01
-9.962960663232512948e-01 -7.372675137923654365e-01 9.946872805486017821e-01
-9.998899387159311258e-01 -7.385356464400438803e-01 9.982753496755891742e-01
-1.002172068542555028e+00 -7.388267272542438091e-01 1.000553794394818619e+00
-9.875460571414923505e-01 -7.607092895709641756e-01 9.873257979040799270e-01
-1.065363993454780056e+00 -8.191681097027250225e-01 1.065126377944021652e+00
-9.876099222888224949e-01 -7.580061026968887283e-01 9.873896488071237654e-01
-1.065358596008068037e+00 -8.161948984491366188e-01 1.065120981701139558e+00
-9.897881628252904740e-01 -7.569194835386572340e-01 9.895674035155171966e-01
-9.897734413633992867e-01 -7.555290196627627575e-01 9.895526853370556486e-01
-9.876002693293166601e-01 -7.524939829775317834e-01 9.873799980005844024e-01
-9.911805078786195544e-01 -7.538407499494952368e-01 9.909594380244849399e-01
-9.911891745844831902e-01 -7.524661626860649211e-01 9.909681027973530343e-01
-9.897653765793130720e-01 -7.500060846781263502e-01 9.895446223517141426e-01
-9.934273462322127379e-01 -7.513966867449758391e-01 9.932057752501572967e-01
-9.948697178396082030e-01 -7.511013431304117693e-01 9.946478251554223826e-01
-9.949137083757876310e-01 -7.497481861793381386e-01 9.946918058800879869e-01
-9.985695191767913759e-01 -7.511116732757632253e-01 9.983468013002865238e-01
-9.985526294181056306e-01 -7.497075296430500968e-01 9.983299153086406807e-01
-1.000784715204069419e+00 -7.499888170424846567e-01 1.000561503257050955e+00
-1.000788432228590041e+00 -7.485970477255425859e-01 1.000565219452537846e+00
-9.985224881077557901e-01 -7.455107076298528312e-01 9.982997807209160746e-01
-9.971080491772854604e-01 -7.430652415454308546e-01 9.968856572625575119e-01
-9.948918715849376371e-01 -7.400273625740931838e-01 9.946699739596486234e-01
-9.934156847401072188e-01 -7.375450537939350903e-01 9.931941163589951271e-01
-9.971071970819398445e-01 -7.388963308928350182e-01 9.968848053572607615e-01
-1.000779739761880949e+00 -7.402232892250119045e-01 1.000556528924569699e+00
-1.002214377728240846e+00 -7.398878724074140489e-01 1.001990846913687117e+00
-9.883735742170245420e-01 -7.624095123359060366e-01 9.895325197372756287e-01
-9.883709443854852283e-01 -7.610283095673866516e-01 9.895298868220526733e-01
-9.883552354052677069e-01 -7.596370616735527159e-01 9.895141594218239689e-01
-9.883960360168804193e-01 -7.582892113088437469e-01 9.895550078753533318e-01
-9.934967683428435059e-01 -7.608161239337956072e-01 9.946617212099485572e-01
-9.934719071154384240e-01 -7.594107932334208666e-01 9.946368308308047856e-01
-9.934916907316724277e-01 -7.580395961758102930e-01 9.946566376448802149e-01
-9.920126492844147936e-01 -7.555268236439293128e-01 9.931758619055448545e-01
-9.920453712932084667e-01 -7.541674435803490395e-01 9.932086222834597411e-01
-9.934551524625199193e-01 -7.538529112197708271e-01 9.946200565317417919e-01
-9.934677649803634880e-01 -7.524761955562166982e-01 9.946326838387516966e-01
-9.957111151710058561e-01 -7.527859458719409202e-01 9.968786645334075658e-01
-9.971545186723371756e-01 -7.524857692189845793e-01 9.983237605385302249e-01
-9.971061645084449143e-01 -7.510579162553422394e-01 9.982753496755891742e-01
-9.971833994625904918e-01 -7.497246214450659085e-01 9.983526751937750188e-01
-9.993967558580035826e-01 -7.499941567141332754e-01 1.000568626923124649e+00
-9.993896405352038492e-01 -7.485942673640866296e-01 1.000561503257050955e+00
-9.971618263312349573e-01 -7.455340789030308057e-01 9.983310767662311180e-01
-9.957049507705048041e-01 -7.430554290090510827e-01 9.968724929046635097e-01
-9.934659706763845355e-01 -7.399982824755625410e-01 9.946308874308106285e-01
-9.934719071154384240e-01 -7.386164122576973634e-01 9.946368308308047856e-01
-9.957095421441047867e-01 -7.388906119783914539e-01 9.968770896620090527e-01
-9.993775867449846695e-01 -7.402180413038125240e-01 1.000549435332817483e+00
-1.000845821502958310e+00 -7.399089503938536261e-01 1.002019391711178153e+00
-9.921323879515685507e-01 -7.663787867056989223e-01 9.946842472605008645e-01
-9.921339510215960722e-01 -7.649936337721235935e-01 9.946858143508938710e-01
-9.906293973749897841e-01 -7.624492764667628597e-01 9.931773908485350688e-01
-9.920683619039223355e-01 -7.621705233332657370e-01 9.946200565317417919e-01
-9.943282113274493073e-01 -7.625172580628859498e-01 9.968857185039349256e-01
-9.943282113274493073e-01 -7.611278315722466159e-01 9.968857185039349256e-01
-9.921181512688247439e-01 -7.580497599391423647e-01 9.946699739596486234e-01
-9.943276782952567006e-01 -7.583485720607958669e-01 9.968851841007325687e-01
-9.943134494313911054e-01 -7.569483142031220302e-01 9.968709186388694521e-01
-9.943282469359944198e-01 -7.555701526679104996e-01 9.968857542040686637e-01
-9.921148615414050465e-01 -7.525019117025634197e-01 9.946666757707355311e-01
-9.957500680147356453e-01 -7.538677394257152775e-01 9.983112323424920831e-01
-9.979887847743205143e-01 -7.541680973761120121e-01 1.000555707295512020e+00
-9.980016756264533662e-01 -7.527832792244790738e-01 1.000568631304148415e+00
-9.980015069029869457e-01 -7.513885925804855148e-01 1.000568462146709026e+00
-9.979931866072809798e-01 -7.499877805349683957e-01 1.000560120450407542e+00
-9.979795427027388088e-01 -7.485829985109957452e-01 1.000546441452438984e+00
-9.943282957325334515e-01 -7.444547768787609376e-01 9.968858031261169650e-01
-9.943281502431864372e-01 -7.430652415454308546e-01 9.968856572625575119e-01
-9.906219392479090891e-01 -7.389113283252752851e-01 9.931699135384387533e-01
-9.921181512688247439e-01 -7.386410243152432553e-01 9.946699739596486234e-01
-9.943097450682525373e-01 -7.388832852272620988e-01 9.968672047477549203e-01
-9.979934753158395955e-01 -7.402261604166581188e-01 1.000560409901552150e+00
-9.994593275930765408e-01 -7.399168077349753680e-01 1.002030032490921485e+00
-9.907143966842321126e-01 -7.663547210200581938e-01 9.946530123687978842e-01
-9.929357980916645454e-01 -7.666836352308402658e-01 9.968832450261386757e-01
-9.929328088251370144e-01 -7.652919082437558140e-01 9.968802438756898532e-01
-9.929306936944655160e-01 -7.639008621297747048e-01 9.968781203362511167e-01
-9.929198213293926045e-01 -7.625030969024472194e-01 9.968672047477549203e-01
-9.943531271810006622e-01 -7.622123838348433544e-01 9.983062087510470306e-01
-9.943467246045102348e-01 -7.608160786338251658e-01 9.982997807209160746e-01
-9.943401930460550320e-01 -7.594196928421743653e-01 9.982932231960485181e-01
-9.943319060331973214e-01 -7.580219870714390851e-01 9.982849032379151888e-01
-9.943802943473661893e-01 -7.566674312265353475e-01 9.983334839213215961e-01
-9.965974343213185316e-01 -7.569600031457047740e-01 1.000559438203721951e+00
-9.966031926776109939e-01 -7.555698220150874889e-01 1.000565219452537846e+00
-9.965994911974727088e-01 -7.541724660776789602e-01 1.000561503257050955e+00
-9.966012114694050572e-01 -7.527792158006274548e-01 1.000563230367977452e+00
-9.966060212781375771e-01 -7.513882900567244727e-01 1.000568059298253099e+00
-9.966063444145835115e-01 -7.499939744163738320e-01 1.000568383719337984e+00
-9.966012114694050572e-01 -7.485955595438622545e-01 1.000563230367977452e+00
-9.906838828095959615e-01 -7.427644947537066500e-01 9.946223771853106577e-01
-9.892416370131178471e-01 -7.402989182804896595e-01 9.931743976961214804e-01
-9.892750320308821843e-01 -7.389396089361673914e-01 9.932079254768104715e-01
-9.907327772511773656e-01 -7.386421323091906244e-01 9.946714660082547343e-01
-9.943887720929490692e-01 -7.399764078970870740e-01 9.983419953704438798e-01
-9.980343141207379531e-01 -7.412926879031724869e-01 1.002002030363165375e+00
-9.981304700812908548e-01 -7.399674160136546774e-01 1.002098568594709471e+00
-9.915484781948274984e-01 -7.680750925911737914e-01 9.968858853696009881e-01
-9.915428669059282996e-01 -7.666813271040385791e-01 9.968802438756898532e-01
-9.929548034367616793e-01 -7.663816680898151157e-01 9.982997807209160746e-01
-9.929611970507026264e-01 -7.649951964811918526e-01 9.983062087510470306e-01
-9.915455162743078699e-01 -7.625151079318445158e-01 9.968829075053567967e-01
-9.929786548645044286e-01 -7.622257847229285677e-01 9.983237605385302249e-01
-9.952102679036258781e-01 -7.625442475547450361e-01 1.000567386129441294e+00
-9.929661937454350440e-01 -7.594333927252774341e-01 9.983112323424920831e-01
-9.929943932814819796e-01 -7.580635072552703857e-01 9.983395836738462314e-01
-9.952027195748578414e-01 -7.583548220164685327e-01 1.000559797168767640e+00
-9.966413260089663773e-01 -7.580544919042293550e-01 1.002006147478714970e+00
-9.952114272160379471e-01 -7.555723383250815273e-01 1.000568551682317286e+00
-9.952114639750857528e-01 -7.541778066790688628e-01 1.000568588639235257e+00
-9.952059034306526275e-01 -7.527790410999002368e-01 1.000562998162942696e+00
-9.951971930971961200e-01 -7.513779130009002882e-01 1.000554240942624462e+00
-9.952098505937196915e-01 -7.499929121690716016e-01 1.000566966573197325e+00
-9.929624508879650868e-01 -7.469078574182123065e-01 9.983074693375912911e-01
-9.856777164705444738e-01 -7.400470689678601000e-01 9.909835219168724452e-01
-9.856645810701879507e-01 -7.386560251089442364e-01 9.909703158099577580e-01
-9.878524019755943186e-01 -7.389113283252752851e-01 9.931699135384387533e-01
-9.915485007548834329e-01 -7.402865749702063347e-01 9.968859080510954485e-01
-9.952098505937196915e-01 -7.416255684111421331e-01 1.000566966573197325e+00
-9.966488099948439539e-01 -7.413013003358669417e-01 1.002013671750146662e+00
-9.989333182347295281e-01 -7.416007287428377781e-01 1.004310477271444624e+00
-9.901585284097301765e-01 -7.680750925911737914e-01 9.968858853696009881e-01
-9.901429982583818123e-01 -7.666736407789632723e-01 9.968702497029550136e-01
-9.915563689967638039e-01 -7.663766339638504732e-01 9.982932231960485181e-01
-9.916246239571433474e-01 -7.650379044075157342e-01 9.983619418957884184e-01
-9.915442686247619708e-01 -7.635845390638813512e-01 9.982810406114316359e-01
-9.916024166168037057e-01 -7.622378657753984266e-01 9.983395836738462314e-01
-9.938163953121575966e-01 -7.625451761901110848e-01 1.000568604632189107e+00
-9.915728598926082382e-01 -7.594323229976032152e-01 9.983098261347019831e-01
-9.952768330612642433e-01 -7.608725373366085343e-01 1.002038964919731878e+00
-9.938147683073974559e-01 -7.583602559270009591e-01 1.000566966573197325e+00
-9.938160052914144504e-01 -7.569666408160977689e-01 1.000568211961558429e+00
-9.952342231609749845e-01 -7.566503154064554426e-01 1.001996065518316215e+00
-9.952442370845527853e-01 -7.552613655523344738e-01 1.002006147478714970e+00
-9.952880703358422121e-01 -7.538980046237245825e-01 1.002050278542849115e+00
-9.938021285541157601e-01 -7.513779130009002882e-01 1.000554240942624462e+00
-9.938108266774521304e-01 -7.499899375760027409e-01 1.000562998162942696e+00
-9.915511268996638483e-01 -7.468932501745856323e-01 9.982879454829765020e-01
-9.842745377339033874e-01 -7.400309352533533946e-01 9.909619175542666580e-01
-9.843011764415806608e-01 -7.386697562049998611e-01 9.909887372512403703e-01
-9.865016128619382707e-01 -7.389367806090186841e-01 9.932041239253629472e-01
-9.879761184297634058e-01 -7.386548913522493764e-01 9.946886476115089915e-01
-9.938162233993128591e-01 -7.416266542607423684e-01 1.000568431551330351e+00
-9.974977036039921474e-01 -7.429742013035082193e-01 1.004274924550190518e+00
-9.975385251760056082e-01 -7.416048241567873012e-01 1.004316023473030839e+00
